# 3D point list with one line of data per point:
#   POINT3D_ID, X, Y, Z, R, G, B, ERROR, TRACK[] as (IMAGE_ID, POINT2D_IDX)
# Number of points: 391, mean track length: 3.9652259519197179
26270 -4.9812442134933512 2.0910011758637022 -3.1079594658622955 0 0 0 0.73361336367654206 47 9391 44 9398
26271 -5.2826230612349869 2.0901964999453315 -3.3105621644397099 0 0 0 0.9750990640924293 47 8701 44 9399 35 9090
26273 -5.0817711086910835 1.8872654737389543 -2.5715578654600493 0 0 0 2.7615568320166961 49 8167 43 10303
26274 -5.464460719941 1.9363470612397049 -2.8024492226577413 0 0 0 0.49997631614058402 49 8169 44 8485
26277 -3.6183905612958336 0.60745600456040394 1.1441487910242569 0 0 0 1.4179444555776353 49 9052 45 9183 43 9413
26278 -2.5574332892868221 0.90898728514345817 1.0075877012508661 0 0 0 2.7217816904107126 47 7711 45 9306 44 8781 36 6252
26279 -4.6868400857491626 -0.68667304212307501 -1.7426289878243624 0 0 0 1.9258032465402839 47 9278 45 9858
26280 -4.6713360566143747 -0.55599843421147888 -1.7159672444304146 0 0 0 2.0464110498613235 47 9777 45 9903 44 9232
26281 -5.5224275350649021 -0.4162765873827925 -2.3478423391905308 0 0 0 0.36649529733668507 47 9784 45 9910
26282 -5.5917911531753379 -0.64466096225729974 -2.1935651297595866 0 0 0 0.020752062875556088 47 10111 45 9911
26284 -2.442702351256417 -0.54695049923181172 0.059498148045852566 0 0 0 1.081872978213213 47 9789 45 9950 44 9286
26285 -5.6868282182094472 -0.15644979615469293 -2.3196083561098204 0 0 0 0.16206571437604489 47 9312 43 10916
26286 -5.5719578643604013 0.004637963676365018 -2.2856039311137444 0 0 0 1.2845364764655189 47 9799 45 10005 44 9287
26288 -5.4306220244042605 1.20607722732856 -1.9432328341585117 0 0 0 1.3258122018869036 45 10085 44 9375
26289 -5.3726950341327564 1.9032536053209452 -2.8698175613678134 0 0 0 0.26124607568737362 47 9392 44 8483
26290 -2.4113514262515623 -0.79269713256185459 0.22006518423530877 0 0 0 3.3859858389411794 47 10106 45 10602 46 5172
26292 -2.4330114295895604 -0.58292291639396121 0.14019441607435359 0 0 0 1.0777939578196203 47 10127 45 10661
26294 -5.2263109921300783 2.2188705271203668 -3.9837413200480021 0 0 0 1.1700210161505475 47 9867 44 9370
26296 -5.2957162023975703 1.9099473159122697 -2.6610462854050536 0 0 0 3.3552478123791021 61 7707 45 10767
26297 -3.6280484011382419 0.65020011355332075 1.1510771730888352 0 0 0 2.2110786620759271 47 10248 45 10874 44 9565 43 10458 42 13741
26298 -4.7130420768197618 0.67725494788442286 1.3599703995771837 0 0 0 2.160300553072704 47 9502 45 10888 44 10192
26299 -4.6242802201366802 -0.63711825510163866 -1.5760570256158488 0 0 0 0.63887021833851865 47 10586 45 11130
26300 -5.3251541999940297 -0.28424895635414493 -2.22344888415387 0 0 0 1.8285197437636256 47 10388 45 11160 44 10521
26301 -5.6922538563748182 -0.12061489338423589 -2.2582229387266799 0 0 0 0.57583804446489473 43 11844 35 10652
26302 -5.4114548692090585 0.25128726465832135 -2.042447430387309 0 0 0 1.449156630034002 47 10403 45 11194 46 5442
26303 -5.754298968133928 0.50153718353607846 -2.0849882440275862 0 0 0 1.8439729506765616 45 11202 44 10572 43 11852 46 5451 35 10670 36 8751
26304 -5.6860216589948651 0.63232614966127798 -2.1604049749675998 0 0 0 3.2019566049917541 47 10417 45 11212 44 10951
26307 -5.3758545673793741 1.8366040776910555 -3.3885682583353121 0 0 0 2.9294093659246516 27 7642 44 10598 28 9342 29 9372 45 11231
26308 -5.2923786988747672 1.7574577801333646 -3.2151397597295426 0 0 0 0.45069907556096522 49 9759 43 11550
26309 -6.4127053070178119 1.2099516085140642 -2.5280294889127486 0 0 0 2.3512322857698948 47 10429 45 11237 44 10600 46 5469
26310 -6.3629445184498454 1.1845675437277954 -2.4607039352426807 0 0 0 2.3414509227691038 47 10430 45 11238 46 5470
26311 -6.4457093866034354 1.2360768999533991 -2.4780764212563917 0 0 0 2.12179319322733 47 10160 45 11241 44 10011 46 5221 48 8098
26313 -5.6613045767429613 1.3268248241495653 -1.9692712249932731 0 0 0 1.411737910404399 47 10452 45 11262
26314 -5.7565975506659104 1.2860517437949393 -1.8761143913820075 0 0 0 1.7129665616579477 47 10457 45 11264 48 8121 44 10617 43 11884 35 10340
26315 -4.2738279315392695 1.0431690757294578 0.17480275002314302 0 0 0 2.0627984908291195 47 9917 45 11337 44 10697 43 11625 35 10429 27 7707 28 9435 36 8498
26316 -5.5140705544873114 -0.15361117943822331 -2.3668585300245684 0 0 0 1.4212150900348897 47 10597 45 11552 44 10938
26319 -5.6432712928646946 0.94854525442754745 -2.095599738064954 0 0 0 1.4167498332631672 47 10615 45 11582 44 10956
26321 -5.3204320065392325 1.8987806205423183 -3.3968305653011037 0 0 0 1.6761500349298117 47 10624 45 11596 48 8533 44 11211 46 6034
26322 -5.7023667187996514 1.97118895309186 -3.2641696452912567 0 0 0 2.8000041018087294 47 10450 48 8357 44 10968 46 6035 27 7997 28 9729 45 11597 23 7541 22 12407
26323 -4.9874976305679386 1.8747234843628626 -2.5461562157715587 0 0 0 2.1677854997417998 47 10472 48 7913 44 10993 43 12119
26324 -2.4409786014426089 0.69046043289066095 0.84581245013827766 0 0 0 0.1529487296286392 49 9824 45 11655
26328 -5.5262758360130011 1.7019216050279538 -3.3670166830722588 0 0 0 1.993212991803732 47 10789 44 11206 43 12270
26329 -5.6599382635225437 1.9615932108998386 -3.4878833708615296 0 0 0 1.9768357595991437 44 11212 43 12274 27 8392 28 10131 29 9869 24 11424 25 9606 31 8951 23 7733 26 8537 22 12840
26330 -5.2523463263666894 2.0348000981155594 -3.1563355761821974 0 0 0 1.5276774411080034 47 10639 45 11827 48 8356
26333 -5.5477673072723199 0.01677767641091284 -2.3039807412835756 0 0 0 0.99407934265727749 47 10853 45 11978 44 11409
26334 -7.8210505984995145 0.1201075029643439 -0.74402565926260766 0 0 0 1.1792943884674423 47 10970 45 12072
26336 -5.4345968463722469 1.1794835476842538 -1.8913546063716955 0 0 0 1.2163602978651058 45 6115 44 5755
26338 -3.3055546592144225 0.33229863604585613 1.9270676267677904 0 0 0 1.133230794183314 47 9940 44 10241 55 7385
26339 -4.731111741276659 0.71826780897279718 1.1207483723149765 0 0 0 1.3001449439497923 47 10812 45 11862 44 11257
26343 -2.4320707488627278 -0.91187152865838539 -0.050995252642005912 0 0 0 0.85140872554239033 45 305 44 345
26344 -5.7860633110412971 -1.0439581778346847 -2.1948219749446194 0 0 0 2.5844788422706735 45 5714 44 365 43 6177 35 4669
26345 -5.7860633110412971 -1.0439581778346847 -2.1948219749446194 0 0 0 2.5844788422706735 45 5715 44 366 43 6176 35 4670
26346 -5.6616149631919432 -0.66888198978431612 -2.5294846340618085 0 0 0 1.9413553431966686 44 425 43 6214
26347 -5.6948368399358484 -0.66100954864148942 -2.5159979366770777 0 0 0 2.503021917367541 45 412 44 426 43 6215 35 4763
26348 -6.2224656594441798 -0.84957476764665241 -2.1276632001310372 0 0 0 0.83170871295816506 45 5762 43 8848
26349 -6.6314743380609462 -1.1041843666552524 -1.5295669572316601 0 0 0 2.500279954366921 45 434 43 228
26350 -8.2799283129753878 -2.1018923391507882 0.74540069263225106 0 0 0 1.2057167337059949 45 556 43 352
26351 -5.7604281336551857 -0.43948980096556989 -2.3370345239187138 0 0 0 2.4771243777232295 45 608 43 6348 35 4849 13 628 11 261
26352 -5.4351206514451293 -0.29804444597144286 -2.4832963098697616 0 0 0 1.8714982531826334 45 598 44 644 43 406 35 4845
26353 -5.4175251365156534 -0.29691935129242786 -2.4272078546825337 0 0 0 2.3681583809706881 45 599 44 645 43 6340 11 2412
26354 -5.730971925355167 -0.30097089145115552 -2.3800803688682772 0 0 0 1.5049525898025813 45 605 44 654 43 6347 35 4939 27 3947
26355 -5.7750137455258921 -0.34775471769038502 -2.3771921455871099 0 0 0 2.2686545951982926 45 609 44 655 43 429
26356 -5.7944630041550171 0.99215996974379383 -2.265309753908257 0 0 0 1.8003511148199609 45 825 44 807 43 6494
26357 -8.6345599889327413 -0.57457295641475947 1.2554841278465372 0 0 0 0.58563409423913049 45 8924 43 6499
26358 -8.8958070371635252 -0.64316356436577926 1.3322777645855362 0 0 0 0.95074980660306663 45 6138 44 816
26359 -8.7827161955577715 -0.63835018952626621 1.368324328546606 0 0 0 0.92158046714312247 45 950 44 817
26360 -8.7827161955577715 -0.63835018952626621 1.368324328546606 0 0 0 0.92158046714312247 45 949 44 818
26361 -5.4980734661110677 1.8107732674670469 -3.0840132584464728 0 0 0 0.32809630523176214 60 3946 44 876
26362 -5.5330201458829933 1.2504625705103307 -2.0008690277747845 0 0 0 2.1331357599510463 45 6116 44 883 43 785 28 621 29 3035
26363 -5.5112654050920877 1.2114086358144556 -1.8989531799727857 0 0 0 2.1812108727590127 45 6121 44 886 43 6550 47 6655
26364 -5.516206883529069 1.213262316045558 -1.9020120626407453 0 0 0 1.8984550234846129 45 6120 44 887 43 6549 35 5245
26365 -8.6626285567005805 -0.25616827505910855 1.4335701186541792 0 0 0 0.84841859161913924 45 6221 44 900 43 736
26367 -5.4648086207312954 1.9167823685179493 -2.8125985564226395 0 0 0 1.8204359920620579 45 1018 44 948 43 888
26369 -8.6808123453602697 -0.16551281016305722 1.4036514630579111 0 0 0 1.8690606855137935 45 6216 44 960 43 6554
26370 -8.9046440479093043 -0.11354644473805518 1.5454681035820252 0 0 0 0.60658061812727826 45 6241 44 961 43 805
26371 -5.8544460006091814 2.1011299369966503 -1.6260292453993748 0 0 0 3.1498745463918132 45 1201 44 1034
26372 -5.8544460006091814 2.1011299369966503 -1.6260292453993748 0 0 0 3.1498745463918132 45 1202 44 1035
26374 -6.2528082806085239 -1.0377094075721485 -2.2555353536754446 0 0 0 0.44557662171094814 45 5721 43 8805
26375 -6.2096639651709538 -1.0420528845842862 -2.2058286929331836 0 0 0 1.4054382003474739 45 5722 43 8806 35 7615
26377 -4.8102520890947726 -0.69670063649653646 -1.8936271953315147 0 0 0 0.78432430327991665 44 5479 43 8834
26378 -5.7548998533244351 -0.68312471511382 -2.4868791985529244 0 0 0 2.6541757226198714 45 5751 44 5486 43 8839
26379 -6.0114682051810675 -0.77912318835106542 -2.2224205202441758 0 0 0 1.7070233771418766 45 5754 43 8844 35 7693
26380 -6.2674528415468416 -0.85679103018769343 -2.0378157016470047 0 0 0 0.53781583690054591 45 5765 43 6280
26381 -6.5962927449495332 -1.122091612575016 -1.5604358408853558 0 0 0 1.8710304267173257 45 428 43 226
26382 -6.6793168389043549 -1.0640020625046567 -1.400070732213299 0 0 0 0.64412297640839811 45 5810 43 8912
26383 -6.7479102613842645 -1.0870471971819 -1.3410837954861499 0 0 0 0.63647330866778251 45 5813 43 8913
26384 -8.3692034239345148 -1.9473655535307313 0.29170531991888871 0 0 0 1.0534561939315892 45 8721 43 8938 35 7740
26385 -8.5424598273691856 -1.9926089805228222 0.46049796466628917 0 0 0 2.25906392901949 45 5853 43 6299
26386 -6.8949369177121698 -1.1449041508694824 -1.1786272466949628 0 0 0 0.71168511006986779 45 8698 43 6283
26387 -7.0599191490183051 -1.1649902311374003 -0.88106477646479386 0 0 0 0.020270244712354862 45 632 43 6355
26388 -5.7847392438075715 -0.26539556364621952 -2.4695257265147608 0 0 0 2.9884663049921092 45 607 44 5617 43 9036
26389 -7.2624383690083167 -0.54569040207335651 -2.2020405993601306 0 0 0 1.8160581172795247 45 5933 43 9040 35 4948 27 3949 13 4484 11 4227 7 4340 8 5365
26390 -8.5978199474761592 -1.8249758263963702 0.91218964900749899 0 0 0 0.89483794901818847 45 5940 43 6396
26391 -8.8126955216008795 -1.7909415077668052 1.0110400355910352 0 0 0 2.3306040248799431 45 5944 44 5628 43 522
26392 -5.7557681413309121 0.15339004923027708 -2.5552778254549562 0 0 0 2.2045326400920211 45 5954 44 5655 43 9066
26393 -10.061311913886016 -0.41230378021487829 0.23802280354992789 0 0 0 0.89989346739827181 45 8877 44 5708
26394 -8.873416586939852 -0.88321625994929243 1.307193796586898 0 0 0 1.6193987981102329 45 6089 44 5711 43 6459 35 707 27 644 28 4995 29 6479 24 4713 22 6087 25 3737 14 885 16 779 12 6329 21 3443 20 628 37 3684
26395 -5.8139965430720926 1.261479930934853 -1.8876899772367877 0 0 0 2.0487855978253755 45 6129 44 5760 35 5250 27 808 19 1435 36 4641
26396 -8.6900459518750619 -0.40850893602952815 1.3504467700675866 0 0 0 1.4857959631455753 45 6189 44 5761 43 6501
26398 -5.3131674745626789 2.1579198060714027 -3.3379182860155479 0 0 0 0.33097863178196696 44 5786 28 5215
26400 -2.5070014029928314 0.343030629482865 0.28989417208570717 0 0 0 1.1096527195534707 45 964 44 5820
26401 -8.6558508610326186 -0.037331433137875576 1.5455080307718343 0 0 0 0.84131910379007224 45 9007 44 5829 37 1940 29 3006
26402 -8.6485284897258783 0.067897651345195209 1.5453630196846133 0 0 0 0.98294888595068797 45 9026 44 5835 43 6608
26403 -7.999515191216636 0.2408397195016686 1.6326715502727314 0 0 0 1.0498949734726979 45 6315 44 5866 43 944
26404 -4.8530308744479012 0.66034043618867189 1.3235760672844805 0 0 0 0.71925708020360091 45 6501 44 5959 28 975
26405 -3.642907343111732 0.75847450832188879 1.2037858348273525 0 0 0 1.9142854652292585 45 9241 44 6068 43 6913
26406 -4.3400300339747186 0.48985257682223249 1.8253747553508619 0 0 0 0.14339017076246977 45 6651 43 9416
26407 -2.2508597331781379 -1.3054737194541428 0.15856983518632703 0 0 0 2.2310024810745324 45 8341 44 7969
26410 -5.7106078603712245 -1.0260893311521517 -2.2659580225728533 0 0 0 2.5893489970338286 45 8623 44 8126 43 8765
26411 -6.2065660941720946 -1.0187137152456562 -2.2334645422373036 0 0 0 1.5527946561912629 45 8629 43 9917 35 8706
26412 -6.8303050451133061 -1.2591371404345899 -1.5483107322683842 0 0 0 0.78322835399232804 45 8650 43 9958
26413 -6.8914871667752848 -1.2774258422571996 -1.5119363866340041 0 0 0 0.92149654858031516 45 8651 43 9960
26414 -7.0560815028198292 -1.4880448614611035 -1.0957138472617518 0 0 0 3.4067749912759693 45 8660 44 8178
26415 -6.8928383009153569 -1.4928455799044837 -0.91599401795722368 0 0 0 1.1212624380528642 45 8664 43 8858 35 7635
26416 -8.118263695070576 -2.1948067773636586 1.0172786970809842 0 0 0 2.0627115180517026 45 5781 44 8185 43 10044
26417 -7.3309583583897453 -2.249322171484069 1.6569061905962361 0 0 0 0.49121331032396126 44 8186 43 8869
26419 -4.7935038986826664 -0.69118121036444935 -1.8375055047195925 0 0 0 0.71219574814187259 44 8208 43 9942
26420 -6.8723695850622697 -1.2428123143133873 -1.2132500017914503 0 0 0 0.77076698038086155 45 8658 43 10012
26422 -8.2841716400693208 -2.2274598916628534 1.2114029121409371 0 0 0 1.2853555892831032 45 8731 44 8261 35 7749
26423 -5.6797901898635832 -0.37838748384139964 -2.520386845315457 0 0 0 1.9320626692884559 45 8688 44 8281 43 10079
26424 -6.0183845593931986 -0.71859295686726365 -2.145622434456997 0 0 0 1.5254478744101132 45 8692 43 10005 35 7697
26425 -7.1390947113299603 -1.2877005982026637 -0.86403265302791354 0 0 0 1.3583666155204184 45 9920 43 8919
26426 -7.1647572215339315 -1.285484155692735 -0.8838082602585845 0 0 0 1.5120202209921765 45 9921 43 8918 35 7721 27 5169
26427 -8.5179764665377444 -1.692363473769297 0.11693665302022885 0 0 0 1.6625365228896156 45 8760 44 8309
26428 -8.3400833207724148 -1.779331012981062 0.47996245883108463 0 0 0 2.8998370075773452 45 8763 43 9009 35 7804 27 5183 19 3705
26429 -8.1838724760968873 -1.9832614336787444 1.2223129492664471 0 0 0 2.0451490832396386 45 8769 44 8317 43 9017
26430 -5.4075002736562716 -0.28486457223046402 -2.4701254034871294 0 0 0 2.1328894978166013 45 5879 44 8332 43 10073
26431 -5.4966168570247067 -0.20751564551081908 -2.4207365913066776 0 0 0 1.3651554820410272 45 8747 43 9034
26432 -5.8138359897826506 -0.35232243777888983 -2.3773361451390649 0 0 0 2.2098167658382057 45 8749 44 8337 43 10083
26433 -8.5740159248212571 -1.8395200476307099 0.95007939698489796 0 0 0 1.6455562454574935 45 8793 44 8347 43 6398
26434 -8.4706130031793272 -1.9418770259042788 1.2671737071130766 0 0 0 1.9955258036008081 45 10000 44 8351 43 525
26435 -8.6185705694738051 -1.9464833794134058 1.2157420548577484 0 0 0 1.2832344467050312 45 9999 44 8352
26436 -2.5096135877160615 -0.05862487810197943 0.21132484563231074 0 0 0 1.070144169885773 45 6016 44 8416
26437 -8.6602854012815058 -0.70618337682373589 1.2783882048322064 0 0 0 0.91557128086107065 45 8885 44 8421 43 6473
26439 -5.8404792691339127 1.1567429200221166 -1.9649426541753074 0 0 0 1.4048496406709698 45 8920 44 8432 43 10216
26440 -8.6516965302046618 -0.71776866528999961 1.6357022647397002 0 0 0 1.9634404372650671 45 10093 43 9113
26441 -4.9695761230019722 1.9856029720134964 -3.302999180519953 0 0 0 2.2030429677217493 45 8909 44 8447
26442 -5.5809390713913745 2.0126953832059473 -3.4265607308413313 0 0 0 1.9855470357481941 44 8448 29 7881 28 6668 31 214
26443 -5.7755204909480238 1.1878222881752338 -1.939694165839547 0 0 0 2.5207553392415494 45 6124 44 8456
26444 -8.7945994322849348 -0.38135729118241163 1.5472942413488069 0 0 0 0.67757731843628977 45 8986 44 8461 43 10220
26445 -5.3219805537328515 1.890493206467265 -2.6741829666419492 0 0 0 1.938379711395968 45 8962 44 8484 43 10280
26446 -5.819819270919564 1.4469202485672836 -1.9540163578648433 0 0 0 1.4921280453723924 45 8972 44 8489 43 9211
26447 -5.8494653712200098 1.3678831241778437 -1.9070051620928188 0 0 0 1.8111653161546168 45 8970 44 8492 43 10249 42 13924
26448 -5.8494653712200098 1.3678831241778437 -1.9070051620928188 0 0 0 1.8111653161546168 45 8969 44 8493 43 10248 42 13923
26449 -4.8969730910072551 1.9925198802676851 -2.7156234649729143 0 0 0 0.647082820804185 44 8511 27 6432
26450 -7.7169388603432569 -0.54425856467733491 2.3572877968503283 0 0 0 1.4738213084493132 45 10152 43 6571
26452 -2.3006639825811965 0.64917641687691097 0.60673195224778342 0 0 0 2.5424000340848867 45 9086 60 5807 44 8608
26453 -3.4705224560464312 0.8419872140661232 0.83015024251058389 0 0 0 2.6746083918823902 44 8648 61 6403
26454 -3.6329572414254758 0.66196657948490134 1.1600899027531315 0 0 0 1.3435494146962188 45 6495 44 8662 43 6833
26455 -3.1820551801968695 0.85490336025878888 0.78064009249213506 0 0 0 1.6565381066330094 45 9164 44 8677 43 10493
26456 -3.2476206349058638 0.91176509283460982 0.84477807373197855 0 0 0 1.3852870787643139 45 9233 44 8683 43 9503
26457 -4.2936005620879767 0.45292073546999173 1.8961745651726472 0 0 0 3.0784820815561798 45 9287 44 8705 43 9465
26461 -6.240303162858841 -1.0307023379144171 -2.1944411012059426 0 0 0 1.4243387149590669 45 8630 43 9918 35 8707
26462 -6.1357943162489104 -0.86631311368573061 -2.231858549043106 0 0 0 0.063848876231203583 45 9869 43 10819
26463 -6.1357943162489104 -0.86631311368573061 -2.231858549043106 0 0 0 0.063848876231203583 45 9870 43 10820
26464 -6.6026018187328219 -1.085986482305985 -1.5709036355636177 0 0 0 0.81792038269280876 45 9876 35 8762
26465 -7.1111749948545722 -1.3417206635027832 -0.91760009621374716 0 0 0 1.2350500623148863 45 9918 43 10013
26466 -8.3491539697253661 -1.8134074315493316 0.57475810056028631 0 0 0 2.2480180402710799 43 10103 35 9638 27 6177 28 7633 24 8742 20 5858 18 4684 14 4186 44 9257 15 3972 16 4749
26467 -8.4443735918789429 -1.8850276453181198 0.67496682525796592 0 0 0 2.1320082349551881 45 9976 44 9260 43 10105
26468 -8.4443735918789429 -1.8850276453181198 0.67496682525796592 0 0 0 2.1320082349551881 45 9975 44 9261 43 10104
26469 -5.7832171339597878 0.49063970066364515 -2.0465788943135004 0 0 0 2.247144265499827 45 10703 44 9316 43 10937 46 5213 35 9720 36 7961
26470 -5.7797238118314205 0.74033681831826637 -1.9835152386873178 0 0 0 1.3660125388207114 45 10045 44 9334 35 8973
26471 -8.854626507294741 -0.73462024078770871 1.3691976762317801 0 0 0 2.1952604212421423 45 10065 44 9339 43 9100
26472 -8.7513523786093774 -0.66976409444429019 1.3591718433098581 0 0 0 2.0300309138570856 45 10091 44 9340 43 9099
26473 -3.255553018492976 1.9117274256764629 -3.8139769252458127 0 0 0 0.93355940181435704 60 6491 44 9344 61 6088
26474 -2.5076617451517746 -0.006839438147232535 0.18082258645631108 0 0 0 2.2440790716374561 45 10709 44 9345 37 7667 36 7965
26475 -5.4750364960968625 1.1716567674497402 -2.0223550909193819 0 0 0 1.9961517249089629 45 10084 44 9352 43 10212 36 7985
26476 -5.7542538681239508 1.251760623095878 -1.9543689895217067 0 0 0 1.3955146626279518 45 10742 44 9376 43 11017
26477 -8.8003151101628099 -0.4066429600361034 1.4295882875845756 0 0 0 0.9488773397927236 45 10771 44 9377 43 10217
26478 -4.790089436748862 1.8091352295741876 -2.4563577525618023 0 0 0 1.7280045817372247 45 8959 44 9401 43 11052
26479 -5.2003645213129372 1.8778415545090137 -2.708899736138362 0 0 0 0.814069003923926 44 9402 43 10279
26480 -7.9676005253572004 -0.47373838955997821 2.0963730796108817 0 0 0 2.59806488312406 45 10796 44 9414 43 9178
26481 -7.8964054533001775 0.35508321480870242 1.6308915741241781 0 0 0 2.1725503680224021 45 10226 44 9445 37 6608 38 9998
26482 -4.299337842738824 1.2180577701100386 -0.24576381119598878 0 0 0 0.81182412661563519 45 10191 44 9463
26483 -7.4899376024328719 0.17930102006085757 2.0833686974642704 0 0 0 1.7921890831606717 44 9472 43 10309 27 6445 29 8578 37 6615 42 13968
26484 -7.5464548865970436 0.1465864565152491 2.1113319958329497 0 0 0 1.046101384699212 44 9473 43 9255 35 9146 27 5492 28 6722 29 7948 24 9029 25 7428 31 7522 37 6616
26486 -7.5312502651048021 0.026812742393939635 2.3131997423430199 0 0 0 1.2573107009761255 45 10253 43 9262
26487 -3.8901841517983669 1.048771157683251 0.24800802596376603 0 0 0 0.7975271191024812 45 10216 44 9508 43 10436
26488 -7.2304795377457918 0.23568257349953176 2.3187668893207545 0 0 0 1.2983966130567202 43 10336 27 6469 29 8612 25 8200 31 8366 44 9521 37 7295 38 10408 33 7420
26489 -2.5698254411683599 0.57269014476927604 0.68685090741475718 0 0 0 2.1530500132525443 45 9095 44 9536 42 13962
26490 -2.5698254411683599 0.57269014476927604 0.68685090741475718 0 0 0 2.1530500132525443 45 9096 44 9537 42 13961
26491 -2.9833929945666338 0.98692886918185008 0.38653311627094378 0 0 0 2.5854373668281507 45 10856 44 9554 43 11191
26492 -4.6640733070000362 0.61600943716178158 1.4382593434357733 0 0 0 0.99674763502184061 45 10289 44 9570 43 9384 45 9243
26493 -4.8473867976422271 0.62571704830623576 1.3790659404333274 0 0 0 1.5373321092341437 45 9193 44 9571 43 9381
26494 -3.1450266535533915 0.86030137301696408 0.77954811987391726 0 0 0 1.7270746080918418 45 10265 44 9591 43 10492
26495 -8.5050839301772498 1.2975564914339761 2.3014424738198613 0 0 0 1.6075240717070887 45 10403 44 9624 43 6855
26496 -8.5008805772969325 1.3293874834703454 2.2922841774404894 0 0 0 1.4981965344213268 45 10404 44 9646 43 9437
26498 -2.4647241401369939 -1.2340913113419032 -0.076074339942223915 0 0 0 1.0070308421116976 45 11057 46 5663
26505 -5.3306860801641092 -0.90406378117542552 -2.1309740579978325 0 0 0 1.131035424897922 45 10591 44 9851
26506 -5.6953481063962856 -0.8712562631396088 -2.3349827967654142 0 0 0 1.8392932747309276 45 11109 44 9855 43 11406
26507 -6.1486880186199508 -0.99939808728770319 -2.2850729715156666 0 0 0 1.6275416333860513 45 10593 43 10787 35 9553
26508 -6.4012443858092318 -1.1082062016377334 -1.7726377199328707 0 0 0 2.3199639756184944 45 10616 44 9858 43 11430
26511 -4.765567291722105 -0.71931537779569743 -1.8820642959850689 0 0 0 0.51185573554796859 44 9876 43 11421
26512 -4.8112622468674129 -0.66651744730752394 -1.8425267449449145 0 0 0 2.0685223434159621 44 9878 43 11423 35 9582
26513 -5.7021566217169815 -0.59439225856798128 -2.5441705103097036 0 0 0 1.4572789105944124 44 9883 43 10815
26514 -5.9448785649119005 -0.70898207900980947 -2.2140163753132103 0 0 0 1.6121764066878363 45 11138 43 11444 35 10218
26515 -6.9796152614521532 -1.4258771911917008 -0.75878576679734622 0 0 0 1.8198649044590292 44 9891 43 10828 35 9591 27 6119
26517 -8.2591553793987273 -1.8011752457428878 0.47917638084715436 0 0 0 1.9882818516575338 43 10100 35 8835 27 6175 28 7630 24 9619 22 9665 44 9925 20 5857
26518 -8.2502970033120384 -1.8005706782228155 0.48223513528869 0 0 0 1.9400499751078404 43 10101 35 8836 27 6176 28 7631 24 9620 22 9664 44 9926
26519 -8.4573735211880656 -1.9196915962331886 0.63862882910950447 0 0 0 0.27183105462820228 45 11165 43 10901
26520 -8.3729518101273825 -1.7832158813245158 0.651853237456954 0 0 0 0.68671334840837062 45 10672 43 10903
26521 -8.6089272031834838 -1.9271065315653459 0.70472601452158901 0 0 0 2.4143433937179606 45 10673 44 9931 43 10904
26522 -8.6089272031834838 -1.9271065315653459 0.70472601452158901 0 0 0 2.4143433937179606 45 10674 44 9932 43 10905
26523 -8.1310051618682433 -2.0110876264939002 1.308399820539194 0 0 0 2.6860663481467468 45 10678 44 9939 43 10906
26524 -8.4296999160883548 -1.7554336938562183 0.73335020700643327 71 71 63 1.1122603054990401 45 11176 43 10132 35 8871 27 6212 28 7650 24 9653 22 9709 20 5885 14 5342 15 5302 11 2571 16 5885 283 5808
26525 -8.8545400074698382 -1.5645371609178511 1.0963159316352626 32 32 24 1.7568573018410654 45 11198 43 10927 35 9687 27 7017 28 8590 24 10366 22 10606 20 8254 19 7930 18 5670 283 6285 280 4786
26526 -8.6664985317268499 -0.76641051193438203 1.2725455134983243 0 0 0 1.4959081930658629 45 10726 44 9996 43 10177
26531 -8.63306250028071 -0.45046870242179338 1.314943368859339 0 0 0 1.0467105522703435 45 11289 44 10015 43 10194 35 9753 27 6306 28 7769
26532 -4.7254787970069234 2.0495098523909836 -3.4848124243616847 0 0 0 2.5272752530615494 45 10077 44 10021
26533 -6.5867348179806493 1.4776016107625141 -2.5822335884610519 0 0 0 1.378092514280669 45 11268 44 10035 46 5232
26534 -5.0177728767153278 1.9277820107207952 -2.8236868573586502 0 0 0 2.1028060918584623 45 10766 44 10057 43 11579
26535 -8.6466716311085321 -0.19904800321873378 1.461728110827627 0 0 0 1.9026544765997291 45 11296 44 10061 43 11019 42 13909
26536 -8.627971164718895 0.064790479594305103 1.4507340789430765 0 0 0 2.0529993187805116 45 11318 44 10083 43 11045 35 9824 27 6346 28 7813 29 9008 24 10448 22 10747 25 9032 31 8580 19 7077 18 5823 17 6838 14 6727 13 7305 10 4348 11 4605 12 11877 8 5589 16 7696 21 7822 37 7725 34 5475 38 10638 42 14187
26537 -8.589361197056375 -0.014985377547818136 1.5205161916897063 0 0 0 1.2537451777083106 45 10792 44 10086 43 9213
26538 -7.9100636686764707 -0.4114221801607702 2.1311925931483469 0 0 0 1.7739090964564519 44 10089 43 10256 35 9796 27 6349 28 8690 29 8981 24 9789 22 10727 25 9028 18 5828 17 6810 14 6705 13 7273 15 7426 11 6807 8 7878 12 12427 20 7758 16 7659 6 9161 5 6840 21 8197 37 7710
26539 -7.9756825540984435 0.24999070531467549 1.6513957324121007 0 0 0 0.93694156687785268 45 10194 44 10105 43 10305
26540 -7.9601852198662177 0.27776433213010282 1.6170318302882132 0 0 0 1.1086584254810861 45 10820 44 10106 43 10304 35 9839
26541 -7.6996672136954727 0.12959886154947198 1.9192634905365957 0 0 0 2.169281298393813 45 10848 44 10108 43 11063 35 9848 27 7138 28 7864 29 9024 24 9820 22 10786 25 8082 31 7964 20 7033 18 5894 14 5648 13 6237 17 5593 11 4656 15 5635 7 3269 8 5637 12 11902 16 5202 21 6776 37 7744 42 13955 38 10378
26542 -7.6329202449628548 0.058299733016764277 2.147233909126693 0 0 0 1.938490834477528 45 10849 43 10310 35 9145
26543 -7.383781217959017 0.040893996034435991 2.3006099859769167 0 0 0 2.2200045869585905 45 10868 44 10130 43 10314
26544 -7.4645387483768983 0.30692506018266102 2.1145282024078567 92 85 77 1.6456652577391697 44 10148 43 10335 35 9864 27 7160 300 2328
26545 -3.0041441974115397 1.0355213895483546 0.39429916722670211 0 0 0 2.7926137963448028 45 10871 44 10183 43 11668
26546 -4.93173074673226 0.47751497189932068 1.807592427113984 0 0 0 1.9785553236236062 45 10890 44 10194 43 10440
26547 -3.6060169505440487 0.78240793985142665 1.1271508861614017 0 0 0 2.6137816312294286 45 10284 44 10203 43 10495
26548 -3.6214560550263331 0.74165723949551376 1.1547201525343695 0 0 0 2.1549301987974099 45 10287 44 10204
26549 -3.615916078367329 0.76473282326050784 1.1384836093216317 0 0 0 2.5489065391758801 45 10286 44 10205 43 11198
26550 -8.8853619949738452 1.2493310186230953 1.9823794707293276 0 0 0 2.2338825970193255 45 10938 44 10215 43 10442
26555 -2.8133938322146759 -1.5568866330811961 0.18314884358263112 0 0 0 2.1580758669572147 45 11023 44 10348
26556 -2.0839741192225985 -1.2995801847232236 0.35348094751051434 0 0 0 3.2486047413549808 45 9633 44 10356 46 5090
26557 -2.200827719013529 -1.1387493692648876 0.039147996448384376 0 0 0 1.9939807665819784 45 11054 44 10402
26558 -2.4348378053124557 -1.068479227650492 -0.15030632400598012 0 0 0 1.759545593287321 45 11070 44 10416 46 5352
26559 -2.4929477133655324 -0.91816913625466068 -0.23515019482605232 0 0 0 0.73469599149270637 45 10572 46 5122
26562 -5.8078731175436946 -0.82727825136307609 -2.5788218227476709 0 0 0 1.1025961806096638 44 10447 43 11405
26563 -6.4132704553840219 -1.0726543431285416 -1.9475601436443966 0 0 0 1.251217406514129 45 10614 43 11428
26564 -4.8001047894057898 -0.77369963397953179 -1.8228648628091573 0 0 0 0.4737233632603482 44 10458 43 11777
26565 -5.6908577541885421 -0.70380506137315102 -2.4757051542503175 0 0 0 2.5775009675642258 45 11117 44 10460 43 11785
26566 -5.7936641917413061 -0.53910071270128357 -2.6000464569631165 0 0 0 0.38966454525399447 44 10461 43 11804
26567 -6.3774370578230855 -1.0264655862636085 -1.8815763034015105 0 0 0 1.4229163560531548 45 11122 43 11429
26568 -6.9092674225092692 -1.2038678224592758 -1.0885434036255974 115 107 94 1.22332997839062 35 10626 27 7536 44 10469 283 6663
26569 -6.9393159137723126 -1.2159079722132262 -1.0294171515576744 66 58 45 1.6669302392666376 45 11147 43 11447 35 10225 27 7538 283 6487 275 3178
26570 -6.9800997431027794 -1.2419491669342642 -1.0069700719450689 0 0 0 2.087866768031124 45 11148 43 11448 35 9589 28 8479 24 9599
26571 -7.0917927294619156 -1.2678762274017583 -0.93016261761165431 0 0 0 1.2063344474974835 45 11538 43 11811 35 10226 28 9183
26572 -8.2732744213130687 -2.0890201780425177 0.70874037808275814 0 0 0 0.24891623034671762 45 11156 43 10872
26573 -4.7636901120325801 -0.58718832777760366 -1.7903651654217241 0 0 0 0.14691950308769786 44 10491 43 11800
26574 -6.0134003603543134 -0.63695804428889469 -2.3468723013426742 0 0 0 2.4380615466372171 45 11139 44 10497 43 12065
26575 -6.0076553568338475 -0.67489165850075239 -2.1859635837345999 0 0 0 1.4550652922646075 45 11140 44 10498 35 10624
26576 -6.926686800100943 -1.1246890938505176 -0.99921978004790213 70 62 49 2.0459321378281912 45 11149 43 11467 35 10246 27 7540 28 9208 24 10855 22 11931 19 8577 18 7349 10 6126 11 7323 283 6504 280 5051
26578 -8.3893679659092317 -1.7927259999537781 0.69783706844612248 0 0 0 0.45698097661512627 45 11166 43 11477
26579 -8.6109700316447615 -1.9021463557265144 0.8150146065977788 0 0 0 0.99617067410657267 45 11167 43 11478
26580 -8.3291324128303081 -1.7299323728612797 0.66864592232968489 43 40 31 0.8255838157839126 43 11493 35 9661 27 6210 28 8570 24 10355 22 10575 20 7629 44 10530 283 5805
26581 -8.797136926047866 -1.849232815531803 0.96754199818330899 0 0 0 1.406071988617875 45 11177 43 10920
26582 -2.4255364822616206 -0.5340715170205862 0.05848687963492475 0 0 0 1.8636148624330124 45 10662 44 10543 46 5418
26583 -8.5631471264677366 -1.5258733836997316 0.96882475693652759 66 63 54 1.9876622059414177 45 11184 44 10550 43 11503 35 10275 27 7581 28 9243 20 7646 19 7929 18 6686 14 7480 16 7573 283 6283 275 3013
26584 -5.7449021114336842 0.051871636196291739 -2.2362754887013359 0 0 0 1.975047624593449 45 10689 44 10554 46 5437 35 10284 36 8383
26585 -8.5675388551883831 -1.5031518825304699 1.0330861602257526 106 106 98 1.1023619686423607 45 11196 44 10556 43 11507 35 9683 27 7016 28 8589 24 10363 22 11405 283 6284 280 5378
26586 -5.3733994407797505 0.34980100755173743 -2.0342088316769105 0 0 0 1.1410564608783464 48 8329 44 10561
26587 -5.8013440752224747 0.37416600483912593 -2.1971858136491504 0 0 0 2.1400895856399487 45 11201 44 10562 43 12086 37 8374
26588 -8.6274426795238881 -1.086395973693292 1.1553634303661122 0 0 0 1.3758144089354307 43 10932 35 9704 37 7652
26589 -9.4433372761234331 -0.5058557480082686 0.70616440214849086 0 0 0 1.0504864655093322 44 10589 29 8958 37 8087
26590 -8.6186019146423902 -0.73889063215607376 1.2684317799180616 129 126 119 1.2286826519108742 45 11245 44 10590 43 10965 35 9745 27 7046 28 8623 283 6345
26591 -8.7589889318244083 -0.58828883425274747 1.307461416223656 0 0 0 2.7696007833130381 45 11269 43 10987 46 5465
26592 -8.8936878458764834 -0.80708904414484639 1.3261960457052382 0 0 0 2.0323997588842504 45 11246 44 10592 43 10966 46 5460 35 9746 27 6276 28 8625 29 8943 24 9717 25 8564 13 6034 15 5407 36 8404
26593 -5.4978603303367075 1.2994931765955169 -1.9349620944532411 0 0 0 2.2851165989262783 45 11260 44 10611 43 11562 46 5489 35 10339 36 8433 42 14380
26594 -5.6271957727933177 1.1221859743552958 -1.8747037082887876 0 0 0 1.8449369136305283 45 10740 44 10612 48 8109
26595 -8.8405981353102963 -0.39593269908868561 1.4906665339219194 0 0 0 0.93411180502601088 45 11297 44 10618 43 11554
26596 -8.7932418074087746 -0.34423242496438455 1.5240618804677162 0 0 0 0.74868740872039352 45 11299 44 10619 43 11555
26597 -5.3984952822153138 1.9121085261518078 -2.7727132265909002 0 0 0 1.824614252545989 48 7905 44 10628 43 11897 45 11284
26598 -8.6013647656133436 -0.044042724600536119 1.4236253752796284 0 0 0 1.734615692749135 45 11311 44 10632 43 11564 42 14387
26599 -4.8535978249034377 1.8224486364194465 -2.3190219906051528 0 0 0 2.1154006307641771 45 11295 44 10640 43 11903
26600 -5.2895264165769218 2.007217723384791 -2.7574887008802453 0 0 0 0.8303168416808917 44 10641 42 14195
26601 -8.9025121140051979 -0.059241419398187389 1.5682839305227319 0 0 0 0.33536649542662761 45 11312 44 10645 43 11020
26602 -7.6818862925806277 0.25647003253853962 1.8053732883733902 0 0 0 2.4448863632659594 45 11340 44 10666 43 11595 35 10384 27 7135 28 8728 29 9391 24 10469 22 10816 25 8654 37 8163
26603 -7.6789121785603793 0.17208816886799008 1.9121518457016429 0 0 0 1.94241555027805 45 11643 44 10667 43 11596
26605 -4.5255200418814505 0.8166515971944156 0.59706056058141554 0 0 0 1.7567738550867871 45 11338 44 10699 43 11614
26606 -7.3751843767410401 0.21436972333184279 2.1939056079324888 0 0 0 0.87000972858761683 45 11365 43 11602
26607 -4.8929246934260453 0.21012207296099808 1.8343607663615578 0 0 0 1.8854852139397198 45 10876 44 10717
26608 -4.5985374848915797 0.49330856025317926 1.7807189893738011 0 0 0 2.7071211755489517 45 11393 44 10736 43 11661
26609 -4.9984822113706509 0.51200103174620004 1.7993573715793094 0 0 0 1.1777313625284089 45 11395 35 9972
26610 -5.0053370929449716 0.45229757293946304 1.9066442029504267 0 0 0 1.0504535179519967 45 11674 43 11646
26611 -5.0891851892489806 0.49554324147929701 1.8789114930855888 0 0 0 2.2687835243277732 44 10742 43 11645 35 10451 36 8159 34 5188
26612 -7.9904103851077704 1.3234246918803687 2.0272352064700314 0 0 0 1.268764666421069 45 11420 44 10755 43 11178
26615 -6.1527515061302411 -0.96768050059622657 -2.2272706647716012 0 0 0 1.1080523892939145 45 11520 43 11780 35 10204
26617 -7.6819563149747303 -2.2190607430498441 1.3855463849294225 0 0 0 2.6481248519770357 45 11528 44 10895
26618 -2.4452291190767901 -0.77576762655992204 -0.018242287535252446 0 0 0 2.1523864354035998 45 11512 44 10897 46 5383
26619 -2.4628524145676494 -0.84815823890924447 0.20074939641607958 0 0 0 1.8001637873806307 45 11513 44 10898 46 5971
26620 -5.5829807006914409 -0.56664875850175433 -2.6028897731217731 0 0 0 0.20478187483588045 44 10900 46 5989
26621 -5.8688975877800198 -0.76198457379883677 -2.3824633860270348 0 0 0 1.1202697768279812 45 11519 43 12053 35 10914
26622 -8.4681938130098136 -1.9852779521422699 0.39767662031863726 0 0 0 0.1670482715483233 45 11791 43 12073
26623 -5.7413664255739985 -0.50624371646602173 -2.4604950018184977 0 0 0 1.8812091002389444 45 11537 44 10925 43 12064
26624 -8.2937906220232822 -1.9701704145480241 1.288575213587114 0 0 0 1.1109298206070717 45 11797 44 10933
26625 -8.7997911397656488 -1.8859044936547313 0.90379794047772954 0 0 0 0.17485272911259214 45 11801 44 10935
26627 -8.5706192940871286 -1.6228837655115584 0.94083145253040767 79 79 69 2.2949269158133374 45 11559 28 9241 27 7578 24 10892 22 11974 20 7644 19 7927 18 6655 14 7470 13 8071 10 6216 11 6686 15 7325 283 6273
26628 -8.1447210507879859 -0.067054328373108318 -0.91984630486691421 0 0 0 0.23092638119263448 45 11578 37 8385
26629 -9.3192170783663411 -0.55480262120673218 0.46108961748205674 119 112 100 1.9004561314682971 45 11583 43 11526 35 10305 27 7609 28 9292 37 8386 283 6580
26630 -5.760565863086673 1.6845612208267873 -3.3045783871462384 0 0 0 2.0142226723515284 44 10962 27 7631
26631 -5.6286744440717538 1.5995987914918619 -3.1085087680744485 0 0 0 0.84460351289579527 45 11589 44 10963 43 11872
26632 -4.5697049841990687 1.9634866844144627 -2.85523292933346 0 0 0 2.8890806750922842 45 11277 44 10978
26633 -5.1639537114152807 1.9315881851983459 -2.8454764207246064 0 0 0 2.089930050444754 44 10980 46 5515
26634 -5.0712360851498204 1.8462638047878499 -2.5823807674601769 0 0 0 1.5158964123445415 45 11279 44 10982 43 11895
26635 -5.9660158209315224 1.3953830477189972 -1.853392449168171 0 0 0 2.4592500711309859 45 11832 44 10985 43 12116
26637 -4.4993526560527082 0.94983716574091659 0.27046364971849013 172 146 129 2.2413286058161437 45 11634 44 11014 43 11920 35 10406 27 7695 29 9433 31 8598 28 9424 36 8816 38 10884 42 14425 300 2643 294 4261
26638 -2.5156694919652818 0.58821395280274591 0.49877885885018275 0 0 0 2.9330278016930698 45 11628 44 11019 46 5808
26639 -4.606504604345341 0.57705287069603406 1.13725942033997 0 0 0 1.2775544578242999 45 11648 43 12146 46 5826
26640 -4.8751631666919124 0.61428419945220336 1.4038356439342106 0 0 0 1.6594296211695927 45 11362 44 11046 43 11933
26641 -4.7426714509633481 0.57185944065608973 1.5862143610909616 0 0 0 0.9779396975270489 45 11666 43 11642
26642 -5.0668400817092358 0.44472850689241189 1.8579116402936522 0 0 0 0.15523085901128947 44 11049 43 11644
26643 -3.1384047737985203 0.96809308634338409 0.65679909798249414 0 0 0 1.8024462007281983 45 11359 44 11056 43 12171
26644 -3.2958075317764983 0.92516523953709895 0.82871938444229232 0 0 0 0.93461929296692281 45 11662 44 11057 43 11960
26645 -3.7781916922835221 0.7332410581907447 1.1063431719363934 0 0 0 0.8230243684562849 45 11868 44 11058 46 6106
26646 -3.6640919065319375 0.74607586725406239 1.1845848475235206 0 0 0 1.7128630877259354 45 11663 44 11059 43 11945
26647 -2.5722565500086665 0.81492196451434984 0.82160687528264753 0 0 0 0.93680570158875032 44 11064 46 6316
26650 -7.9737189290479611 1.4423364341057929 2.0651622122448989 0 0 0 1.996880464499893 45 11701 44 11077 43 11950
26651 -7.932362468246601 1.4235243791950276 2.1305108030862265 0 0 0 2.0661103946316222 45 11894 44 11078 43 11951
26652 -7.932362468246601 1.4235243791950276 2.1305108030862265 0 0 0 2.0661103946316222 45 11893 44 11079 43 11952
26655 -3.0788682531609775 -1.0817598636792343 -0.39129027462309945 0 0 0 0.10742730093652039 45 11754 44 11157
26656 -3.9735635977688073 -0.9982839384585801 -1.1543577406307437 0 0 0 2.7590829946226685 45 11762 44 11158 46 5966
26657 -2.5179337190431559 -1.0071288936997937 0.18882072816396309 0 0 0 1.7634309914651436 45 11505 44 11161 46 5954
26658 -3.8014869374880944 -0.93552070710111368 -1.0808020459815437 0 0 0 1.1074173467039325 44 11163 43 12217
26659 -4.0194179905736576 -0.8894273192458505 -1.1884960723257203 0 0 0 0.656121147486321 44 11165 46 5972
26660 -5.2686484837365857 -0.75152314865107517 -2.2345598421604143 0 0 0 0.53224048778887223 44 11166 43 12044 46 5988
26661 -5.6945825785149529 -0.90940572749524218 -2.4014523682408124 0 0 0 1.7576743485870034 44 11167 43 12225 46 5975
26662 -6.3747752064405683 -1.0796406389926791 -2.1736486784816105 0 0 0 0.080925876264538232 45 11771 43 12228
26663 -6.3060175288022675 -1.105393406637867 -1.9218627695560768 0 0 0 1.1816562727196702 44 11169 46 5978
26664 -6.5874297293201449 -1.209585849110155 -1.7269924032766828 0 0 0 1.3861761038260365 45 11778 43 12047 35 10918
26665 -7.2329195365786418 -2.2583135632393336 1.6707337682503289 0 0 0 0.26755665636361436 44 11171 43 11792
26669 -7.0671709200822725 -1.4707901952124873 -0.85269247982114837 0 0 0 0.58368491474000583 45 11966 43 12243
26670 -8.2885912950995557 -2.0635878829567686 0.83123428174011438 0 0 0 2.8661918888734768 45 11792 43 11819
26671 -8.5926579888298331 -1.6284483972774411 1.2703787002455793 49 50 44 1.7320735690631741 45 11804 44 11192 43 12085 27 7942 28 9679 24 11178 22 12353 20 8629 280 5516
26672 -5.8597895763181889 1.3015174449834617 -1.8873560561473606 0 0 0 1.9724442613399813 45 11831 44 11215 43 12276
26673 -8.7291766383612082 -0.12011929614690187 1.3433423035928285 0 0 0 0.93089135803956147 45 11835 44 11226 43 12108
26674 -8.6639142645021927 -0.09924473778732075 1.467234089468699 0 0 0 1.891638258284791 45 11618 44 11227 46 6045 42 14588
26675 -8.8727306574614424 -0.12969727354355579 1.6012658128498005 147 151 150 2.2177792091607809 45 11838 44 11229 43 12109 42 14728 299 4193 301 3225 297 2343
26676 -8.7780756861211646 -0.15238402358732317 1.6255797365666071 0 0 0 1.6828107131744003 45 11837 44 11230
26677 -4.5307425483103678 1.9836968429829667 -2.7800235060918377 0 0 0 2.6477260702149521 44 11235 46 6056
26678 -4.9985755198529613 2.0105207368522873 -2.3801953378175118 0 0 0 1.8812598323691323 48 8383 44 11239 43 12125 46 6059
26679 -5.8517067663111373 1.8966020836205173 -1.6482045275716406 0 0 0 1.978347926350384 45 11842 44 11240 43 12291
26680 -5.8517067663111373 1.8966020836205173 -1.6482045275716406 0 0 0 1.978347926350384 45 11843 44 11241 43 12290
26681 -5.8422426416745532 2.031373129621902 -1.5849156260884665 0 0 0 2.360385964821377 45 11849 44 11243 43 12292
26682 -7.2728288963901813 0.23608327393280429 2.252595275534504 0 0 0 2.3032401834521647 44 11250 43 12127 35 11192 27 8409 28 9985 36 9259
26683 -3.5847324717224587 0.59244194704585973 1.133555762496421 0 0 0 0.95494468080515627 45 11861 46 6090
26684 -3.3555936075642894 0.9387392812773252 0.76667091016588385 0 0 0 1.0972457849349724 45 11867 44 11272 43 12164
26686 -3.5098844619033476 0.80718124690372961 1.1508951206241878 0 0 0 2.0531663765625932 45 11671 44 11283 43 12172
26687 -2.6527230494228604 0.84357098578522349 1.101751914321718 0 0 0 1.0554085648797913 44 11300 46 5866
26690 -2.5284724625000097 -1.237635595395338 0.10268649135858901 0 0 0 2.9760420520467137 45 11933 44 11347 46 6190
26691 -2.8327932691891946 -1.1714681295365428 -0.24980296032955324 0 0 0 0.50209959851523545 45 12046 44 11356
26692 -5.3453404127185422 -0.98509406419636569 -2.3638135680048573 0 0 0 2.289635708667896 45 11764 44 11373 46 6205
26693 -2.4372076623252026 -0.83960446955691026 -0.057223004567772191 0 0 0 1.8282591448939718 45 11952 44 11376 46 6210
26694 -2.4372076623252026 -0.83960446955691026 -0.057223004567772191 0 0 0 1.8282591448939718 45 11953 44 11377 46 6209
26695 -2.4503622788947959 -0.93030646356138857 0.213627116137312 0 0 0 2.3158026031772909 45 11950 44 11378 46 6203
26697 -6.0554491210726873 -0.87939143826927568 -2.269646200458272 0 0 0 3.3706211830940291 45 11962 44 11387 46 6238
26699 -5.6806058698442614 -0.16552704424663084 -2.4574831176481844 0 0 0 2.1313247378083755 44 11408 46 6257
26701 -7.9630320376663652 0.48861555329433137 1.7546856938463797 0 0 0 2.6572744513248949 45 12004 44 11431 46 6448
26703 -4.8386826431657655 0.55138887021492156 1.3202482953154571 0 0 0 1.7919611691124449 45 11857 35 11196 44 11441
26704 -9.2245989758070621 1.3423019309506481 1.8521464922719209 0 0 0 2.6214016702894791 45 12018 44 11447 46 6326
26705 -3.6387422862943164 0.78862335428107444 1.1589960568439888 0 0 0 1.6669206165437203 44 11456 43 12314 35 11322 27 8525
26708 -8.611357782944431 -2.1609579523969527 0.83885243696900391 0 0 0 2.3307375544270434 45 12118 44 11502 43 12254
26709 -4.7509038624942157 -0.58157551384510808 -1.78171329831604 0 0 0 1.994716437088778 44 11504 43 12447 46 6421
26710 -5.3167639551879695 1.4021485448882967 -3.5559381734113078 0 0 0 1.0363813275622995 45 12067 13 10072
26711 -5.3167639551879695 1.4021485448882967 -3.5559381734113078 0 0 0 1.0363813275622995 45 12066 13 10071
26712 -9.2418035943526853 -0.35466187077636652 0.56709047108134314 111 105 93 2.391039010575561 43 12376 46 6430 35 11296 27 8484 28 10230 29 9921 44 11513 24 11637 25 9678 31 9040 19 9515 18 8647 17 9538 14 9067 13 9833 15 8730 21 8816 37 8743 283 6971 275 3582 273 2551
26713 -5.8013203531372124 1.7388584798180167 -3.124369235450811 0 0 0 0.26842790176346887 45 12078 43 12384
26714 -7.9767049411587694 0.34594414400976331 1.6784380528667526 37 32 26 1.7726580131714162 45 12135 44 11523 43 12394 35 11308 27 8504 28 10255 29 9928 24 11656 22 12850 37 8758 36 9365 291 3472 300 3013 301 3144
26715 -4.7243007763330267 0.54064682677063192 1.6285920938582485 0 0 0 2.6544032859708842 45 12095 44 11535 43 12401
26716 -4.9719779615718567 0.44936497601141528 1.861156714885378 0 0 0 0.38781342325834678 45 12096 43 12402
26717 -4.9719779615718567 0.44936497601141528 1.861156714885378 0 0 0 0.38781342325834678 45 12097 43 12403
26718 -2.5900416130499933 0.79954966323475762 1.1507836882586131 0 0 0 1.579281361426832 44 11543 46 6466
26719 -5.6496364592343538 -0.54651858447361712 -2.0890425531675123 0 0 0 2.0969313065068604 45 12115 43 12536
26720 -7.2240664614018328 -0.49999473859996513 -2.1201718734047477 0 0 0 1.7287337123675779 44 11562 43 12495 35 11414 27 8613
26721 -8.3326045858372595 1.2823952177683129 2.1923143912195049 0 0 0 2.1260293590503285 45 12144 44 11598
26723 -5.2013560549611837 -0.95822290659881026 -2.1249079312441799 0 0 0 1.8530493686617846 45 12152 44 11607
26725 -5.4781021237129464 1.5296949234809447 -3.3727649082699886 0 0 0 2.1885816585762692 48 8839 44 11613 47 10992 43 12499 46 6564
26726 -5.6496565779744934 1.7683119702010222 -3.2861879583745472 0 0 0 2.4945109439515503 46 6567 27 8660 47 10996 28 10389 48 8842 29 10020 45 12160
26727 -7.7173011740971953 0.085203074038286794 1.9777595307841938 35 39 42 2.199787961101225 46 6527 44 11618 35 11379 27 8580 29 9970 25 9687 24 11652 31 9046 37 8802 36 9448 300 3081 299 4338 301 3293
26728 -4.1318804692375197 0.46685222342123178 1.8779142624905965 0 0 0 0.40979209521036636 45 12169 43 12518
26731 -8.6901994871481563 -0.2765814553987947 1.5022509516504998 61 63 60 2.8557775424790157 45 12176 44 11629 43 12501 46 6596 299 4371 300 3110 301 3327
26732 -4.1320242065621979 0.77030617327576645 0.60245046950926062 0 0 0 0.4240036928892284 45 12180 44 11634 46 6575
26733 -3.2171683286993922 0.92142705259812552 0.74270834141118225 0 0 0 2.533241817316894 45 12183 44 11635 43 12574
26734 -2.4345420739858059 1.0402080898588986 0.69228696773621767 0 0 0 0.543776438499457 44 11636 46 6541
26735 -7.2755534136897122 0.022430242188608698 -1.9926061882052477 0 0 0 1.8990733797360144 45 12190 44 11645 43 12564 35 11468 27 8682 28 10412 10 8373 7 8962 11 8861
26736 -5.0695955321036958 2.0729519020960838 -3.2491312349891226 0 0 0 1.24900740214628 44 11646 46 6598
26737 -8.1612042417826345 -0.061912013628423579 1.8234336077890134 0 0 0 2.624264845590321 45 12192 44 11647 43 12567
26738 -4.6897081486689096 0.63365044422136851 1.3240413347517312 39 29 29 2.1177821051496406 45 12193 44 11648 35 11453 27 8666 28 10393 29 10022 36 9513 34 6413 290 3489 288 5322 291 3594 292 2658 287 4483 299 4395 300 3135 298 1715 296 2181 297 2661 295 2183 294 4720 304 1186
26739 -4.2802583116725765 0.57697019475198663 1.5835976377879712 0 0 0 2.8857266552476588 45 12197 44 11649 43 12552 46 6606
26742 -8.0331464203000671 0.32310986789595958 1.8558183014378105 34 31 26 1.9194543259809442 44 11657 35 11489 27 8685 291 3602 299 4415 300 3151 301 3372
26743 -4.9903125937244432 1.614739071709232 -3.5966991069426677 0 0 0 1.6924645711584922 44 11663 46 6640
26744 -7.0658864980763116 -0.11990211480613544 -2.0889031764716739 0 0 0 1.6103418099180815 45 12216 44 11665 43 12608 46 6645 35 11503
26745 -2.5290227074365084 -0.94207123661553516 0.21706505535003864 0 0 0 1.8380551257801556 45 9836 44 9141 61 5996 59 9246
26746 -5.7839556627105777 1.5457210994762702 -1.701133998104686 0 0 0 2.3558909638118344 49 9996 47 10644 43 12120 42 14598
26747 -4.9102031771657639 0.23162967468763548 1.8639075986539446 0 0 0 0.16257555247099292 45 6505 44 5961
26748 -8.22537138228817 0.087269838968688507 -0.78702838922024287 0 0 0 2.3226874426350355 45 10713 29 8953 11 6749 8 7822 9 7287 31 8519 12 12383 6 9130 1 8171 37 7670
26749 -8.0744971574080395 -0.15960510404119516 -0.98455350424730514 0 0 0 2.2146243992107832 45 11216 43 11513 27 7599 28 9269 24 11192 22 12006
