# 3D point list with one line of data per point:
#   POINT3D_ID, X, Y, Z, R, G, B, ERROR, TRACK[] as (IMAGE_ID, POINT2D_IDX)
# Number of points: 404, mean track length: 3.2632632632632634
687 -14.925365325001486 -7.2040454480788485 32.206180339973983 217 168 154 1.3618222926851939 3 9241 2 5561 1 6594 5 4989
688 -8.2503092644506975 -7.3429374186322951 35.245374308375524 61 35 20 0.88445391659740336 6 7163 2 5578 1 6601 5 5018 4 7274
689 -13.505700093276934 -5.7424028529446369 30.658803634847221 172 122 111 0.54205531005925189 3 9279 2 5605 1 6644
690 -12.976688612256687 -5.8873466667908714 31.092225836692755 118 80 71 1.4685073038870153 3 10287 2 5609 1 6618 4 8175 8 7295
691 -14.530347078196638 -5.3805601356521615 31.425112162312487 122 45 19 1.5535382672784015 3 8076 2 5643 1 7775
692 -15.060578637120758 -4.616941105933809 30.210116193905069 158 86 36 0.12609636805543412 3 9326 2 5647 1 6672
693 33.519242173062914 -3.630115954756691 54.81366826919227 112 106 108 2.1825100424404784 6 7275 2 5678 5 5963 7 5169
694 -8.2104890127200196 -3.2594130331727924 27.622471816955819 66 19 0 1.6357916877722729 3 9374 2 5692 1 5227
695 -8.2104890127200196 -3.2594130331727924 27.622471816955819 66 19 0 1.6357916877722729 3 9375 2 5693 1 5228
696 -7.9931983642001097 -3.3393478322492265 27.795627330590595 55 18 1 1.1214865249452155 3 9376 2 5694 1 6692 5 5130 4 7401 8 4883
697 -7.9233818325092091 -3.2724869815875772 27.615865796304966 218 186 165 0.80824100428449319 3 9377 2 5695 1 6693 5 5914 6 7235 4 8241 7 5198 8 4884
698 -3.785801899570389 -2.4814400794382432 26.462925051231785 180 131 101 1.9976192097830749 3 8250 6 6245 2 5716
699 -8.5061914857736873 -2.3173721511306677 25.665655511933583 144 130 122 0.30303203855816074 3 8213 2 5739 1 6722
700 -7.5249273587101744 -2.478199290032407 26.153661172302971 206 161 135 1.5260150208295091 3 9416 2 5744 1 6724 5 5164 4 7451
701 -6.1018245091824612 0.27337335148615632 20.017521830771283 103 97 94 0.20505855633582429 2 5869 1 7894
702 -12.449902387405361 0.67946335121902757 20.336418153558153 107 61 41 0.73846126155163128 2 5893 1 6890
703 50.821599560386183 -39.326597041635956 66.857197613768108 113 118 124 0.58331212332175364 6 7553 2 6009 1 5949 7 4509
704 50.722728809294161 -39.274055350177484 66.749866661750517 113 118 124 0.47141294981147858 6 7554 2 6010 1 5948
705 51.268777533403359 -39.138029690890555 66.708960020340967 120 127 133 1.308335681069317 6 8451 2 6011 1 7202 7 5800 8 6786
706 36.111882234960618 -40.218794175090252 71.378130161777406 166 168 165 1.0456212292951939 6 7573 2 6049 1 7189
707 56.000979200991921 -45.685034262073764 81.399627238584941 162 164 161 0.96564727639429104 2 6051 1 7192 7 4504 8 5466
708 55.556027923444255 -45.447955075110258 80.801675863840401 162 164 161 1.9666740016806716 6 7578 2 6052 1 7191
709 56.215705836848159 -45.084726176928285 81.178510007417401 159 161 160 0.98346939539296119 6 7579 2 6055 1 7195 7 4505
710 56.568428044927117 -44.259842610798472 83.930972148978384 224 255 255 0.55165708933037438 3 10645 2 6113 1 6024
711 -28.038012595381389 -34.038730928694378 70.054438305581712 179 169 155 0.85549195862195104 3 9808 2 6146 1 7398
712 -26.354045063289842 -35.002385898468958 70.833513164178768 242 232 222 1.1958451655723701 6 8501 2 6148 8 6839
713 8.9617033399243589 -48.328340963596574 99.492650791862076 109 110 112 0.77706919823135667 3 9842 2 6149 1 7279
714 39.292713040204745 -35.865835949126151 75.018444144300986 171 170 168 1.1707030371018072 3 10707 2 6177 1 7372
715 39.7371003741181 -35.976697781339794 75.045331658147433 122 121 117 1.9938968942401976 3 9930 2 6179 1 7373
716 -26.979001893630219 -32.171320409432667 70.345494161760612 137 128 121 0.59976763053648907 3 9841 2 6220 1 7469
717 22.289717673491928 -43.658837465566599 95.602347581909569 63 69 105 1.2026425452289973 3 9914 6 7713 2 6229
718 22.667979531903196 -41.772865790710448 96.758434581780278 153 154 149 1.5331177335902975 3 10725 2 6230 8 5649
719 29.725193738160524 -38.08354721087823 84.506398616982409 70 75 86 1.3214782662938711 3 9919 2 6232 1 6198 4 8608
720 -26.769136802031063 -32.13124831771286 71.278877818620003 185 175 165 0.55565421270847093 3 9898 2 6272 1 7470
721 -26.510788677778574 -32.481412944146129 72.801796137845272 125 112 101 0.8714001633757581 3 9899 2 6273 1 8353
724 30.295606787006331 -35.393513272349409 87.120152276771947 237 247 255 1.701857392835247 3 10803 6 6907 2 6336 1 7486
725 32.672997956264339 -35.795962649238042 89.013535780905499 127 118 109 1.6206560128718064 6 7838 2 6338 1 7488
727 51.516123203897912 -35.799117344141756 83.811106028598502 167 163 159 0.99379457919770953 3 10756 2 6361 1 7458
729 29.552009215086144 -33.956310969405536 86.012102268027391 223 239 254 1.0687384574193759 2 6393 4 9355 8 7976
730 45.126675270213205 -26.000026726283767 65.973610910496816 214 206 193 1.4618195714560691 3 10156 2 6401 1 7506 8 7051
732 45.020795530126939 -26.493219890240781 65.591782737345582 96 91 88 1.1121785142699967 3 10059 2 6403 1 7504 7 5974 8 5761
733 -40.124758725455187 -27.802559876536797 71.922467241595939 75 44 23 1.9586879178632244 3 8956 2 6407 1 6383 4 4136 8 972
734 -1.0177787892570866 -23.030934982088496 63.741169933528269 91 88 95 0.60653818586775643 3 10850 2 6413 1 7578
735 -0.80847964647185022 -17.289312194661068 45.483254803832814 116 107 98 1.7383814022782684 2 6415 1 6389 8 5833 6 6930
736 49.673665444125611 -20.844506901422843 61.19626357952815 62 64 76 0.862827265310531 6 7047 2 6451 1 7573
737 -39.93448662169164 -23.425194849445305 65.137449474077542 42 23 8 2.0060190761508725 3 10078 2 6453 1 7644 5 4837 4 7019
738 -38.450196317387487 -25.023938462015167 68.480801564423828 93 66 39 2.3717733443701503 3 9022 2 6456 4 7902
739 -4.9580760734619478 -21.81204650942988 61.991149070538377 171 166 159 0.34105108545737356 6 7002 2 6465 1 7624
742 -38.145988356822656 -22.735212781802666 64.076318311188757 97 80 64 0.47920907268509483 3 10081 2 6494 1 7648
744 -15.269504263181092 -6.3770656292525905 30.69270623194711 205 159 146 0.99282576456967553 3 10260 2 6633 1 7755
745 -14.329827223129479 -5.663081388083552 30.838547016737174 164 105 91 0.73062790480473694 3 10284 2 6636 1 7772
746 34.364163141250721 -3.8416927602207043 54.642219345486737 134 128 128 0.9657653433477994 6 9488 2 6660 7 7153 8 7367
747 -14.46526484485034 -5.2811624055296349 31.320052928895535 157 82 50 1.855391355047717 2 6662 4 7354
749 -7.7950897601401818 -3.0621730941806748 27.105121593690633 174 124 100 1.2336670297608343 3 6313 2 6699 1 6694
750 -5.8860373534181862 -1.6573232773452569 24.804546981238335 48 23 18 1.5969657448617198 3 10414 2 6737 1 7846
752 -23.768570521900088 -3.4481747821129782 37.73644640133616 143 130 121 1.2377401950223017 3 10364 2 6751 1 6750
753 -23.768570521900088 -3.4481747821129782 37.73644640133616 143 130 121 1.2377401950223017 3 10363 2 6752 1 6751
755 -6.9359060770281111 -0.17154728318820392 21.537165685379584 27 19 16 2.278014665042992 3 10457 2 6811 1 8732
756 6.4085130478192402 1.6264983161843838 28.668099997443633 169 162 159 3.1103124630686878 6 7391 2 6824 5 5402
757 37.28054923836612 -42.212769800476572 70.411203011850887 201 202 197 1.5532219904994462 6 9101 2 7000 1 8141 5 7254 8 8528
758 52.354724725565603 -40.382952796635706 66.708693333818772 199 200 195 0.96179004786104583 6 8426 2 7002 1 8148
759 33.287218239526133 -55.260289173631058 100.5097799247754 95 94 92 1.5375437532951439 2 7014 1 7177 4 9257 7 4443
760 55.599996855205681 -44.913411210658474 82.223166683740885 168 172 171 1.6555638385802522 6 9145 2 7029 7 6759 8 7862
761 55.102967469137198 -44.786393514869744 82.452382780459601 99 103 104 1.3750141348785561 6 9144 2 7031 1 8196 7 7480 8 8566
762 56.668950300544054 -45.729366109864188 81.576630616280582 116 116 116 1.2111755947698799 6 8443 2 7032 1 7193 2 6053 8 7834
763 -24.444834298781252 -45.400277102775114 85.716293515006669 190 178 164 2.0876895584645552 6 8457 2 7044 1 7278 7 5776 8 7837 4 8508
764 55.254504345119223 -39.747238796260589 85.269996926264866 129 136 152 1.7356000824483815 3 10708 6 9206 2 7110 1 8287 7 6845
765 23.025831960227748 -41.875246377210132 95.252963031939473 0 0 0 1.3395871650681486 3 10697 6 7777
766 24.563608804018138 -39.109616550126802 86.211769434634974 80 80 80 1.4959913799667619 3 11281 6 9201 2 7157 1 8275 4 9306 8 6882
767 25.539298671166655 -37.5026745953285 85.929898684972315 72 67 64 2.1457173195805583 3 10742 6 8598 2 7161 1 8326 4 8647 5 6283
769 53.205596103372727 -38.412060397022067 84.037450005623683 156 161 164 1.3672812157247705 6 9207 2 7169 1 8286 7 6844 8 7918
771 -27.338118065187206 -30.449229254671458 70.438429194380589 101 91 79 0.37970091081637214 3 10685 2 7193 1 8352 7 4630
772 -26.123326892732116 -32.650222931346491 73.253945421557447 133 123 113 2.0250151462954897 3 9901 2 7195 1 8354 4 7810 201 5289
773 40.979393157971089 -40.495291013332967 96.381268286771643 219 211 198 0.94607160823693792 3 10751 2 7207 1 8332
774 44.794828051668439 -28.10679997221769 65.850280378977004 225 215 203 1.0135510937294614 3 10825 2 7217 1 7462
776 30.134852424494742 -33.851746949102761 86.338142413397577 59 64 83 1.5465705670033016 6 9263 2 7235 1 9103 4 9359 8 7978
777 43.098452873265096 -27.183564059954222 67.930186325198477 218 209 196 1.2885699804975594 3 10821 2 7244 1 9112 7 6888
778 43.4122091546541 -25.003603359460847 66.693656241699216 188 184 173 1.5662354959394376 6 8681 2 7245 5 6946 7 6915
779 -38.272315025572695 -26.497970452949865 69.585681949927249 42 32 23 0.41051892594801292 6 8638 2 7253 1 8451 8 5768
780 12.479645551801909 -26.102476769967542 70.355363394353105 224 241 255 1.6026870238306952 3 10857 6 7880 2 7260 1 8388 5 6930
782 14.050183969562196 -24.535950786376684 67.268843456749437 39 49 70 2.1326539988152584 3 11366 2 7267 1 8422 5 6931 4 9888
783 30.279253641073915 -20.611204549812999 58.824995832764102 210 66 76 1.1594981268833384 6 8678 2 7284 1 8436 5 6981
784 30.516507986504195 -20.336855005472131 58.961259726457058 255 222 200 1.2860268110865658 3 10901 2 7285 1 8437 5 6392 7 6054 8 7137
785 -35.068304095826548 -23.553735656552252 65.722255084309026 53 41 37 1.0588758316952951 6 8698 2 7300 1 9203 5 5677 4 8789 7 5985 8 7061
786 -34.36845449793271 -24.137906304548899 66.685987728682647 203 185 171 0.92028529274277648 3 10089 2 7301 1 8461 6 7915 5 6344 4 8791
787 -32.677364883407662 -23.412506957584778 66.089158383755844 61 41 34 1.0485363807294532 6 8700 2 7303 1 8494 5 5679 4 8792 7 4804 8 7062
788 -32.694380492964861 -23.443463447053631 66.179410004626675 61 41 34 0.36069876595217498 6 8701 2 7304 1 8495 7 4805
790 -14.367410445021562 -5.8231846073633076 30.858667096508906 98 56 44 0.37112708954040236 3 10972 2 7458 1 7771
791 -11.914494395831634 -4.277772764881659 29.424244564417855 226 192 154 1.0225017982089026 3 10993 6 9456 2 7487 1 8643 4 9003
792 -9.2149475321357706 -4.2125823193569234 29.313063366022735 55 27 15 0.91184274460078785 3 11033 2 7493 1 8645 5 7112 6 9460 4 9610 8 8846
793 -12.448696869184349 -3.9297641240874919 29.080388654689347 105 33 0 0.43987778996499521 3 11031 2 7503 1 8641
794 -12.443309495036157 -3.9390535137311304 29.162735906785702 105 33 0 0.78603401351263791 3 11032 2 7504 1 8640 4 9000
795 -8.0924027528846558 -3.067203922216819 27.643505623998468 192 166 150 1.00177713261829 3 10368 2 7509 1 8662
796 -6.2767453338941124 -3.4666064073707687 28.331627048854475 177 123 95 1.1826852076083187 3 11039 2 7511 1 8652
797 -9.7172791612289569 -1.9894374001801842 25.168640476565681 62 49 39 1.4154336851541693 3 11089 2 7527 4 9070
798 -4.7465702822464326 -2.1187156676294165 25.782265476625987 53 21 15 1.5819305642384243 3 11075 2 7540 1 8676 5 7171 6 9483 4 9660 8 8892
799 -0.021582275257162265 -1.4989241825665485 24.850917959403098 180 116 68 1.7185524427240231 6 9500 2 7543 1 9311 5 7544
800 -23.84118197522438 -3.1557968284917681 37.947020166802147 169 152 142 1.0659648734208933 3 11084 2 7549 1 8698
801 -23.770634942165977 -2.8852725282173792 37.678645535420173 56 39 29 0.92688022570041817 3 11085 2 7550 1 8699
802 7.6842885071680564 0.16200386437120509 28.47679346930061 70 71 66 1.2091405887526099 2 7567 1 7850
803 -6.7538194799341094 0.28105181188917994 20.045622281343885 125 119 116 0.11691357862437618 2 7603 1 8763
805 19.806368692120138 -39.004491611339176 55.096291911396442 80 84 95 0.86125282835606687 6 9072 2 7694 1 8932
806 34.338917839598238 -60.913133454650961 100.67315581227123 109 110 105 0.85363450851830136 2 7716 8 8522 6 9637
807 -1.0179988320768838 -57.498432902409014 103.81047638167958 185 177 164 1.785573387020575 6 9108 2 7720 1 8153 4 9243
808 36.249464539607878 -56.963248452543965 100.73633195677911 134 130 127 0.9127100516825174 6 9112 2 7724 5 6799
810 50.672672169391653 -40.100056313230034 66.816626855295908 73 79 85 0.42880467879296186 2 7730 1 8947 7 6740
811 18.743827619010371 -62.111754013082447 116.75778940844407 121 132 136 1.9252260185481755 6 9133 2 7733 1 8953 7 6728
812 -24.577038477751177 -44.990945506926721 85.721143065064595 151 139 125 0.43670952277413205 6 9124 2 7743 1 8999
813 35.518666824206406 -50.197997889838987 104.04165783029542 248 255 255 1.3309432418348501 3 11263 2 7771 1 8220
814 57.582038391006954 -41.069252868613702 87.39504626684716 247 255 255 2.1107008128595517 3 11635 6 9208 2 7779 8 8603 7 8043
815 24.194739013763975 -38.413631856883285 86.183303570677083 197 194 185 1.9460248390106438 3 11628 6 9230 2 7798 5 7303 4 9823 8 8627
816 24.653499995857242 -38.032075452075063 87.031128251688344 170 165 169 1.8708779838395633 3 11298 6 8596 2 7799 1 8325 5 6280 4 9334 8 7944
817 25.106974976001574 -37.642286519439821 86.570084786138338 209 203 191 1.5967834242409038 3 11646 2 7800 1 9060 8 7945
818 40.21015836479701 -34.891164153586921 78.750808521892353 65 65 75 2.0971476807601204 3 11317 2 7806 1 9070
819 -34.833380614452274 -35.581012121199031 78.962989670601516 184 174 159 1.4540404949667851 6 9217 2 7809 1 9083 5 6857 4 9297 7 6800 8 7899
821 22.669399453277823 -38.535055291550783 94.648397531088904 136 132 133 2.1858736472991631 3 11297 6 9260 2 7824 1 9101 5 6874 4 9846 8 7972
822 40.971011732338233 -39.004575767963992 92.931705961107085 218 210 197 1.6236887913013156 3 11310 2 7828 4 9832
823 46.875065418610923 -29.329945683667749 67.946204365847009 71 71 78 0.54936863900790067 3 11320 2 7838 1 9074
824 46.812800195851359 -26.69923951319128 63.535700712422212 204 194 182 1.069547120721126 6 9719 2 7844 1 9081 7 7578 8 8659
825 56.309788065167645 -27.056722833106885 64.272496535989518 60 69 82 0.40384886804981934 6 9250 2 7845 1 9082
826 56.372148884678161 -26.587866131877487 64.521636334036018 189 181 171 0.97669848440707907 6 9251 2 7846 1 8346
827 29.924923296471395 -32.838460808163674 85.717532010316077 246 233 226 0.81008554806355959 2 7863 1 9107 5 7348 4 9863 8 8669
828 43.50403238040586 -26.766602193994508 66.993507647748558 227 215 203 0.92789297572586305 6 9269 2 7870 1 9113 7 7573 8 8672
829 43.50403238040586 -26.766602193994508 66.993507647748558 227 215 203 0.92789297572586305 6 9270 2 7871 1 9114 7 7574 8 8673
830 43.961959142858589 -25.008639244518047 65.984712001479352 75 68 75 0.86482220970479995 6 9275 2 7875 7 7602 8 8011
831 43.961959142858589 -25.008639244518047 65.984712001479352 75 68 75 0.86482220970479995 6 9276 2 7876 7 7603 8 8012
832 -41.638940388591756 -27.105207277232918 70.222505643054646 202 184 170 0.97968928567853963 6 9279 2 7883 1 9183
833 -40.927682415205169 -27.556485825329673 71.294590405156669 54 45 38 1.6102549267745274 6 9280 2 7885 4 9375
834 -40.786059979789719 -28.041451181271498 72.529007515720849 78 51 34 1.8277838693415962 3 11325 2 7886 1 9572 4 9376 7 6874 8 7992
835 46.881397645704979 -22.546230214746686 62.970377150554732 151 148 141 1.1372916567996927 6 9304 2 7910 1 9147 7 7634 8 9115
836 47.048746462981143 -22.605194949932027 63.151918523852714 151 148 141 0.44307277322893329 6 9305 2 7911 1 9148 7 7635
837 51.502293476441203 -20.671710834029852 60.920714235895133 69 70 75 1.1515165283843558 6 9780 2 7914 1 9149
838 -39.133455387225425 -26.027645827100425 70.52609786248108 128 106 83 0.25213563984163395 6 8693 2 7918
841 -13.399203745736004 -5.6302952748761284 31.168442491877233 96 48 34 1.2335943758936294 3 11772 6 9856 2 8053 1 9281
842 -4.8826627230944961 -2.9051116740955116 27.026499839851411 201 156 132 1.685852046727671 3 11074 2 8075 5 6601 4 9057
843 -2.9503363787287227 -2.111513584852756 26.135579359618511 204 141 106 0.6767236785350681 6 9884 2 8078 1 9307 5 7543
844 -5.4219535291791026 -1.9394966366553057 25.512899759427615 56 26 18 1.2072087425746072 6 9497 2 8087 5 7541 4 10068 8 9259
845 -23.615034975589353 -3.0752922748907099 38.068162391653829 44 27 19 1.1964337324170671 3 11823 2 8089 1 9316
846 6.5976506806877877 1.8986897453653921 29.311071232111718 146 135 129 0.27980077816319016 6 9544 8 8370
847 -25.746167444149979 2.4813941706600748 41.176406176902859 105 88 72 1.6152059872541931 6 10227 2 8121 1 9338 4 10079
848 8.3432394379360968 7.8327885340191239 31.670702597303979 162 146 131 1.1597160946579175 2 8130 5 7570 4 10408 5 7831
850 40.014836807937016 -46.873892973258187 67.765958762284583 199 195 186 1.4218684091007749 6 9089 2 8167 1 9431 7 7437 8 8511
851 -16.214324621617337 -51.787389417781462 90.290339784870525 192 180 166 0.88568008413654109 6 9642 2 8179 1 9449 4 9739 8 9002
852 -15.348163533555336 -51.277199830316981 91.831196685214991 191 181 170 1.4757106495028076 6 9643 2 8180 4 9740 7 7458 8 8533
853 -15.348163533555336 -51.277199830316981 91.831196685214991 191 181 170 1.4757106495028076 6 9644 2 8181 4 9741 7 7459 8 8534
854 55.108818450752672 -43.967952688995588 82.797508082413231 119 127 130 0.61690703692076898 3 11880 2 8221 1 9480
855 39.332493495253154 -36.061640880924465 74.066684484419326 132 129 124 1.9863330913415211 3 11895 2 8233 1 9499
856 22.923703150921497 -43.890272137216961 96.514788064177012 66 76 111 1.8201931002456897 3 11626 6 9695 2 8243 5 6864 4 9807 8 7912
857 25.271712053996772 -39.375148863721364 86.244346565114043 198 198 190 1.7044597989833452 3 11629 6 9202 2 8245 1 9509 5 7304 4 10191 4 9808 8 8596
858 28.01844986405672 -38.109439502120622 85.816454877695534 74 75 80 1.9553507447714382 3 11630 2 8247 1 9062
859 39.558524096652398 -34.615437880843068 75.065266368785387 100 100 98 1.7744288169692495 3 11902 2 8255 1 9512 5 7307
860 40.258418860659397 -34.859590949249785 74.831588431376062 192 187 179 1.7206326512637593 3 11903 2 8256 1 9511
861 26.363101387489639 -38.270108667296661 94.508305232179467 86 80 80 1.8587214663300788 3 11662 6 9733 2 8268 1 9543 4 10211 8 8648
862 44.819153687541281 -27.786825422986688 65.726258011906395 226 215 203 1.447393101372966 6 9715 2 8274 1 9528 5 7665 7 8075 8 9078
863 45.362980819655334 -26.957725509057589 64.977596911278383 87 81 83 0.4772874177280414 6 9716 2 8275 1 9530 7 7575
864 31.956223433324137 -34.9568963408394 88.352157260350765 229 238 248 0.80807550336047285 3 11663 2 8283 1 9545 5 7659 4 10465 1 9839
865 46.641461364728137 -24.778467853777482 63.601188621222299 86 81 77 0.40093176494233046 6 9746 2 8292 1 9556 7 8091 8 9092
866 46.641461364728137 -24.778467853777482 63.601188621222299 86 81 77 0.40093176494233046 6 9745 2 8293 1 9557 8 9093 7 8092
867 46.820295619865114 -24.313022113728582 63.110208014951468 230 218 206 0.65530303237386911 6 10056 2 8294 1 9558 7 8093 8 9094
868 20.329689256350211 -20.884537178713867 60.534712363956146 113 130 158 1.2323735717522215 3 11393 2 8317 1 9861 5 7390
869 25.268221635068031 -20.164011156648566 59.620954824842769 84 86 111 2.7814916814419015 3 11961 2 8321 7 8115 8 9423
870 -26.219866834560676 -26.914084093448622 95.980303793260433 163 147 131 1.0194906605898499 3 11730 5 7426 4 9926
871 -26.219866834560676 -26.914084093448622 95.980303793260433 163 147 131 1.0194906605898499 3 11731 5 7427 4 9927
873 -12.752706122733207 -5.6689697807214685 31.629845036745728 160 109 96 1.4447328093861596 3 11773 2 8400 1 9660 5 7478 4 10002
874 -15.447536853355979 -5.0532528184501659 31.177660479137483 192 119 69 1.7045817390164011 3 11791 2 8410 1 9668 5 7496 4 10017
875 -12.855150205435702 -4.4801877140462292 30.138219286076197 199 129 77 0.85406366493151376 3 11793 2 8412 1 9670
876 -11.069674438212319 -4.9638328947023398 30.482093155371821 52 28 18 0.82199247595476754 3 12010 2 8416 1 9661
877 -25.282295547125099 -5.354435102546466 37.438390788721982 37 27 23 0.90700805052677946 3 11801 2 8421 1 9682
878 -7.8231970638674078 -2.3529363095676739 26.016870809516092 53 30 22 0.55028101216276382 3 11816 2 8435 1 9684
879 8.2362278054341314 -0.012037170930106421 28.688099417669978 85 95 94 2.0495043321904589 3 11830 2 8450
880 -7.263343435046135 0.074566171949554769 21.3926785776661 94 90 81 1.9884878587363168 2 8453 4 10089 1 9702
881 -26.436484917561852 -43.193657263343226 67.247131895445847 136 126 114 1.4627094246960386 6 9964 2 8488 1 9769
882 -26.436484917561852 -43.193657263343226 67.247131895445847 136 126 114 1.4627094246960386 6 9965 2 8489 1 9770
883 -16.974113744031659 -51.645401755060945 90.05123289057677 158 145 129 1.3965354623602289 6 9974 2 8501 1 9773 4 10140 8 9001
884 -16.172644666926256 -50.712591481740127 90.690157200740828 196 184 170 1.169140150896554 6 9975 2 8502 1 9774 4 10141 8 9008
886 36.938799428433079 -39.332614541589479 70.765955084452884 103 106 111 1.9099795658036458 6 9982 2 8518 1 9476
887 52.625662922968324 -39.183285016227252 67.606035648397992 75 84 93 1.6581416439458576 6 9983 2 8522 1 9784 7 8019
888 -26.302685912220117 -35.828982692167415 70.974718325140103 130 123 113 1.6027705360712885 6 9993 2 8543 5 7607 4 10172 1 9807 7 8026 8 9030
889 -26.309371578696922 -35.828488781177754 70.964540068297481 130 123 113 1.3778412512800633 6 9994 2 8544 1 9808 4 10173 7 8025 8 9029
890 -35.277661729986498 -36.621767996803122 78.219151194947045 113 106 99 1.7791226969527216 3 11886 2 8554 1 9813 5 7618 4 10180 8 8590
891 -35.291025841019511 -36.584664224904053 78.228687846571546 113 106 99 0.9996504237826821 3 11887 2 8555 4 10181
892 -26.724291861931928 -32.883596455231917 70.905247373690685 207 200 192 0.38321861853378286 3 12072 2 8559 1 9815
893 -26.724291861931928 -32.883596455231917 70.905247373690685 207 200 192 0.38321861853378286 3 12073 2 8560 1 9816
894 39.364847246258606 -35.00952550619035 74.650769877702473 115 115 115 1.4343382539473559 3 11901 2 8565 1 9810
897 23.48771865025375 -38.295111198660607 94.408348425811724 242 247 253 2.3543698050609509 3 11661 6 9261 2 8583 8 9070
901 47.029755756989346 -26.080839521805235 63.508795229771451 96 88 86 0.97782111014096817 6 10054 2 8590 1 9843 7 8077 8 9396
902 47.055528284823296 -26.08632147623327 63.535129456068304 96 88 86 1.0056757007690791 6 10055 2 8591 1 9844 8 9397
903 47.440860791934256 -26.200678876850411 62.873470748974789 205 193 181 1.3081287152693462 6 10040 2 8593 1 9831 8 9398
904 44.604580537301807 -26.617243592309169 65.756459743981367 218 209 194 1.3196841419098875 6 10053 2 8602 1 9842 5 7898
905 -40.900694400291506 -28.872076674070946 73.088022440803186 177 160 144 1.8315635999745008 3 11906 2 8605 1 9851 4 10205
906 -28.602278923287397 -26.353964380805152 74.127678254319406 183 171 157 0.20949415145882985 3 11930 2 8619 1 9870
907 -9.3809871331080004 -20.94870810553121 60.839035416738511 51 50 46 0.81259728718027224 3 11950 2 8620 1 9871
908 -4.3193331268360167 -22.808003781678824 63.459234110157993 129 46 45 0.81461926030976972 3 12109 2 8622 1 9854
909 -26.651425668209743 -24.254207639314949 75.229512979096626 185 173 161 1.5567251183007258 3 11948 6 10347 2 8631 5 7938 4 10492 8 9617
910 4.6867575272888162 -14.514100043141225 46.591268426719004 125 142 168 1.629183036211743 2 8639 1 9891 5 7955
911 -7.7169352283359283 -5.6928878869499293 31.320398071968611 52 33 25 0.52266491450626484 3 12000 2 8710 1 9938
912 -14.713159888273109 -4.8562861485561246 30.916900447524675 179 111 64 1.759913443431014 3 12149 2 8713 1 10145
913 -9.7872481957556285 -4.8080762533634207 30.779519048568019 65 29 13 1.2488196741867106 3 12014 2 8717 1 9945
914 -4.5322921358145534 -1.4792860906882657 24.569576215831496 61 36 29 1.5164222182733704 3 12036 2 8733 1 10163
915 -3.91081437269276 1.4946199133010918 18.544676693988677 184 124 90 1.8571909691949129 3 12048 2 8752
917 -29.401148851789848 -37.958232509168795 68.700426550970121 126 117 109 1.0197093198962517 6 10278 2 8796 8 9345 7 7997
918 -23.938632629658663 -45.853153856361551 85.492151361749151 198 189 174 1.5084688020592598 6 10290 2 8798 1 10037 7 8332 8 9356
919 -13.396653162232399 -50.337602693115336 94.146032233448608 197 188 175 1.1779589730276772 6 10291 2 8799 1 10038 4 10427
920 39.056467228405836 -40.559168377206937 70.802680240525461 140 139 134 2.3117810907374174 6 10283 2 8803 5 8071
921 50.509982953111965 -21.244620813969728 63.142522159676275 211 215 227 1.6714651595745167 6 10343 2 8848 1 10088
922 -38.091096749638815 -22.039168775638032 63.084206589733768 187 161 134 2.2917665240545375 3 11927 2 8854 4 10479
923 -29.429832985596587 -23.321100072758568 76.439461379768304 116 102 91 0.88232069107555355 3 11972 2 8865 1 10098
925 -24.663215097072115 -4.1164240597075876 38.103258706455939 79 69 59 1.3390879707185952 3 12163 2 8917 1 10158
926 -24.663215097072115 -4.1164240597075876 38.103258706455939 79 69 59 1.3390879707185952 3 12162 2 8918 1 10157
927 -24.078746524976125 -2.8211191877806865 37.800817811847246 34 19 12 0.84850927479828542 3 12177 2 8919 1 10168
928 -6.1551526900101852 -1.5262676084718023 24.582518650860461 70 42 34 0.77399906002712282 3 12180 2 8922 1 10161
929 -25.554101066182696 2.686383101941523 41.602023533293654 41 26 19 2.0840299139319911 3 12197 2 8938 1 10182 4 10575
930 6.8233712471915542 8.1310749334289572 30.473044048997348 111 95 82 1.9811757330448181 3 12210 6 10623 5 8197 4 10738
931 56.939005801291664 -47.798131061685211 79.328999167151551 202 205 194 0.87061065258478043 6 10482 2 8965 5 8061
932 -0.94157937377414136 -55.397469822911994 105.0608577479474 184 177 167 1.344545462953127 6 10491 2 8966 1 10217 4 10610
933 39.038177954989969 -41.944312417157477 73.009390473094783 214 214 204 1.5788447554679337 6 10487 2 8969 5 8070
934 25.266710416877459 -38.454216343464907 86.348244472297665 71 73 84 1.8287283785469675 3 12229 6 10513 2 8981 1 10237 5 8083 4 10626 8 9588
935 52.335478361677339 -35.909789984234258 79.766128359708773 140 139 137 1.25661899910343 2 8984 1 10233 5 8096 8 9592
936 -28.635537880444868 -30.163630078669833 73.788408538735638 255 249 233 0.71636512611265857 3 12235 2 8989 1 10246
937 -28.262117110903532 -29.462957111176006 72.14115993213936 255 249 233 1.3117758862542217 3 12236 5 7891 4 10456
938 -28.213839787820039 -27.636521801251046 72.838043603300207 186 172 159 1.3751137388946042 6 10522 2 8996 1 10251 4 10471 8 9400
939 -28.213839787820039 -27.636521801251046 72.838043603300207 186 172 159 1.3751137388946042 6 10523 2 8997 1 10252 4 10472 8 9401
940 -27.357892860499717 -26.397134956758567 73.393730321137937 112 103 94 2.3521727114932296 3 12255 2 9007 1 10259 5 8104 4 10481
941 -3.2988555135866222 -22.802988640940278 63.420696539077262 146 55 60 2.0955601163776589 3 12256 2 9008 5 8237
942 -28.205912172863314 -24.70360613438384 74.638205485512174 183 169 156 1.8384726117714199 3 12265 2 9013 1 10262 5 7918 4 10482
943 -28.205912172863314 -24.70360613438384 74.638205485512174 183 169 156 1.8384726117714199 3 12266 2 9014 1 10263 5 7919 4 10483
944 -15.264269283466167 -5.4011751696189503 31.741703151582843 136 72 37 1.0972644629895019 2 9049 1 10395
945 -19.951714963867804 8.5827073535764242 29.184339450677196 17 12 9 0.24284172880048585 3 12320 4 10735
946 36.865855180660645 -42.3710478828134 71.656438051157153 187 183 178 2.4232961347763471 6 10644 2 9086 5 8205 8 9725
947 52.020943381285477 -40.153463628021498 67.749631744971794 72 79 87 1.5037024093595701 6 10723 2 9087 8 9825
948 -15.182000168806015 -49.594115975610528 93.976214445916114 191 181 169 2.2309883798753782 2 9088 4 10746 6 10648 8 9729
949 24.419615647798494 -40.386496035246267 95.828125537788964 153 152 147 2.1216870958373124 3 12332 5 8223 8 9736 2 9107
950 23.90095431764373 -39.708840010479214 94.557594510187585 0 0 0 1.7941542973356941 3 12333 6 10660
951 -1.6745734705193294 -22.709771153766983 63.267391386741984 31 32 50 0.79651819862124018 3 12258 2 9121
952 -6.0949046001581983 -4.3881681600476456 29.513199170640224 212 147 105 0.61607305192058692 3 12359 2 9146 1 10398
953 0.46760530635683667 -2.3826035229436791 26.250881616474327 199 147 125 0.88956283960547888 2 9149 1 10304
955 -18.902919664173599 7.961177822748648 31.648557425635168 32 25 17 2.2870083140826085 3 12381 2 9168 1 10426
956 -5.9274208092033094 -0.93711616592925684 23.507973088986983 201 139 100 0.65232978937400354 3 12421 2 9208 1 10546
957 54.154529084656929 -44.231650597759263 79.738567268853245 148 152 151 1.9033238275930386 6 10789 2 9225 7 8903
958 -10.047092140247745 -15.9018596877566 49.672069906102898 41 37 33 1.5712531932715053 3 12404 1 10517
959 -8.2805072437766629 -5.4210722975576902 30.925354765916456 45 30 25 0.91548591024725334 3 12457 2 9256 1 10536
961 -0.89437440972214499 -1.6517632717113104 24.490857901635156 53 34 32 0.32927201378863874 2 9264 5 8360
962 -0.77670729305812636 -1.6485708914210546 24.68136921514872 53 34 32 1.8225448973582175 3 12468 2 9265 1 10542
964 -41.882895682424703 -30.053739576051285 70.993770021450686 100 65 43 0.010989501983609077 6 10826 2 9292
966 -14.371901944451526 -5.2166232077407964 31.632151288650093 102 51 29 1.8084064226871759 3 12519 2 9334 1 10613
967 39.973376162899193 -37.086166443584496 79.673347317939047 140 139 137 1.2288156224294364 6 10878 2 9339 1 10601
968 39.973376162899193 -37.086166443584496 79.673347317939047 140 139 137 1.2288156224294364 6 10879 2 9340 1 10602
969 -35.114589286311016 -31.264929189419014 82.791287181181744 185 172 156 1.7456089390722747 3 12550 1 10639
971 19.304367045808348 -63.378760340099923 117.02658530089168 175 188 194 0.14198321851219226 9 83 1 527
972 10.003189359829177 -51.927734416481954 99.821501282123464 144 145 140 0.20331405480333525 9 245 1 684
974 35.499879108652252 -35.276601703469041 72.229052025367906 67 71 79 0.89993051906938415 2 3217 3 7254 1 1054
976 6.5737427325478874 -45.69623183338544 99.505470613821515 112 113 110 1.3740777617420195 3 4764 1 1272 4 3910
977 7.151773577662496 -45.921880332042115 100.19475726513492 97 97 97 0.72321867686146224 2 3333 3 4768 1 1274
978 10.257184110200852 -46.619394074707266 101.38230617907857 185 185 190 0.29598157850316553 2 664 3 345 1 1280
979 39.424555458618492 -35.217883419394745 74.209588643071825 140 140 138 1.0696358185352219 9 678 1 1341 7 1376 11 3613
980 39.874541837188048 -34.277966167863731 75.208009584936477 129 129 127 0.3591992505411733 3 5006 1 1345
981 39.325705260396425 -32.948689419094293 76.292664802734862 99 100 95 0.62111818190249013 2 1162 3 5122 1 1550
984 -26.629514559650154 -31.155881957317728 70.959241622603002 89 85 82 0.6024708805389597 2 1055 3 4935 1 1637
986 46.386152673216692 -24.271708260960612 63.20495955274334 72 65 64 0.59678037952621821 6 5709 1 1735 7 1649
987 46.386152673216692 -24.271708260960612 63.20495955274334 72 65 64 0.59678037952621821 6 5710 1 1736 7 1650
990 44.508028843050376 -23.446536950179535 65.446771978998555 62 60 62 0.36505400795979426 9 1417 1 1850
991 45.889362205223286 -23.423867270984552 64.271397726146077 198 197 194 0.81457200792961026 6 4225 1 1856 7 1764
992 47.113673720395134 -22.688957441153594 62.972684353291704 199 195 192 0.86150470995939321 6 4238 1 1862 7 1776
994 0.96353327048063564 -16.41451874246545 43.514877650459738 211 204 196 1.5594511322478777 2 1505 1 2096 4 4392
995 0.96353327048063564 -16.41451874246545 43.514877650459738 211 204 196 1.5594511322478777 2 1506 1 2097 4 4391
996 -26.643614105812183 -24.051370867147753 77.241960685240429 192 179 170 0.34400850330991939 9 1689 1 2149
997 -26.371742393981325 -21.49980574080757 73.378825763230523 192 179 170 0.45594839044306268 3 1866 1 2237
998 -1.5959179241033323 -12.83552824380785 45.137043384143553 72 24 19 0.93267186372714861 2 1686 1 2261 4 1817
999 -2.1335425195086035 -11.619285280581513 45.781608569744392 41 35 35 1.1918695293179062 3 2144 6 2033 1 2314
1000 -35.963550850682303 -20.64764384813602 86.46865749225779 58 40 26 1.045257879554246 6 4523 1 2336 7 1858
1001 -8.4536867644490457 -7.2690752798490097 35.336759159011152 67 28 6 1.4198196960430831 2 2043 1 2549 5 4163
1002 -7.5629677440063272 -7.5145199691942111 35.247846307841179 214 149 109 0.52599697773473109 2 1885 4 4863
1003 -7.5629677440063272 -7.5145199691942111 35.247846307841179 214 149 109 0.52599697773473109 2 1886 4 4862
1004 34.155158044141643 -3.9550632500818534 54.611747707556276 53 48 54 0.41652877564407476 9 4579 1 2691
1005 -9.2818694051771917 -4.2772478863081913 29.205083933579282 63 25 8 1.234457434062757 2 4236 1 2738 4 2781
1006 -7.0585861791629414 -4.0659902422003409 29.323569346123346 107 60 35 1.0120012419255642 2 2231 3 2918 1 2749
1007 -11.133791830046011 -3.8420771481019353 29.116002203796793 156 83 32 0.56401707499911036 2 4278 1 2811 4 5139
1008 -1.8511815641530072 -1.9624290656611427 25.306334438672422 158 102 75 0.038107352320106647 2 2341 1 2925
1009 -7.1064083163226863 -1.7710236579274368 24.278274631619237 67 16 1 0.69645996928444687 3 6446 1 2994 5 4397 4 6617 8 5001
1010 -9.619877343499164 5.3681238754916416 19.71232564931184 95 56 41 1.9847461669962119 2 2689 1 3448
1011 37.938514291112099 -46.009623268025095 60.52736888926421 79 84 87 0.60998693635907064 6 6488 1 3638
1012 -26.875039173956267 -45.033518684220731 62.121873548864414 126 116 106 2.2504710626410529 6 5111 1 3693 7 739
1018 44.003984423170081 -23.549985680462143 64.988330672232706 58 56 57 1.6909592142626806 3 7738 1 4623 5 3980
1019 44.929347274637038 -23.672837183469621 65.439929867340652 71 70 68 0.6618050547470834 6 5806 1 4626 7 3525
1020 46.968171541581206 -22.783772101816741 63.201413522212711 201 198 191 0.35591793057832627 6 6985 1 4636 7 3534
1021 46.979147862641518 -22.509718706935502 63.352938180717089 199 194 189 0.92421018095125507 2 3692 6 5817 1 4638 7 3541
1022 47.115216940618268 -22.39075617520993 63.044824311729656 198 193 189 0.49437117973772216 6 5820 1 4640 7 3542
1024 -7.9028986913122843 -20.417113089939125 60.607050627576086 178 173 167 0.4702155425053276 2 3740 6 5841 1 4770
1025 -7.6425847204963606 -19.907480953510429 59.198749706511229 86 82 77 1.3127531131552921 1 4773 5 3939 4 6012
1026 0.50373493434159577 -16.452530018327209 43.60706060151211 119 112 104 0.80806015432633804 2 3751 1 4785
1027 1.4352115786699648 -15.979262415494576 43.354102653434417 126 125 122 0.38628937274452357 2 3757 1 4793
1028 5.1344605996736545 -15.969515764104376 46.902469193793479 126 138 160 1.2038865357400395 2 3763 1 4799 4 7160
1030 -26.004954568394666 -26.303186841025987 93.973045095107111 146 129 113 0.75276880573557459 3 7795 4 6067
1031 22.288894700839901 -13.669418186215413 70.463047227055071 203 206 215 0.019831443342248675 1 4978 5 4976
1032 34.012043836149175 -9.9013666160986791 66.087836138052452 228 218 216 1.2267036137741851 6 4754 1 4984 5 4233
1033 -14.37772273573602 -6.5525662120099879 31.360285695550374 202 170 161 0.58538534819085741 2 5564 1 5113
1034 -12.828830361929025 -5.7881096149447409 31.118422644221113 101 57 46 1.6696781312869391 2 4176 1 5126 5 4201
1035 -10.645495302077418 -6.3818354220526929 31.710647711557812 217 181 162 0.59958674403100765 2 4088 1 5143 4 6399 5 5011
1036 -10.29817652470383 -5.6962779640997097 30.645104989918767 38 27 23 0.89484734205283478 2 5625 1 5148 4 6404
1037 -13.164085039249564 -5.7472376315318785 31.02495418496046 109 71 62 1.9433146489686088 3 9281 1 5170 8 4764
1038 -0.71661253097697619 -3.4754782877486297 25.366030649314311 228 177 156 0.067044718727127861 2 5671 1 5199
1039 -8.1327343696540737 -3.6005561927401364 28.100470645077195 216 164 135 1.1254941047648048 2 4283 1 5224 4 7395
1040 -5.6234256496856982 0.48703550780135157 20.101135914802075 132 75 44 0.76344055117832998 2 4520 1 5486
1041 -10.479533018000964 -56.29570643948427 77.914572429134665 186 179 169 1.1776438342004181 6 7445 1 5681 8 6677
1042 35.965346085391296 -55.663712719068997 101.57210831132518 109 108 104 0.80033500081029552 6 6585 1 5925 8 5455
1043 9.0897572182731032 -51.0625717735821 101.26333108527382 40 43 48 1.0033183602494204 2 3019 3 9811 9 5115 1 6072 7 1002 202 3509 21 3515
1044 39.597771673375732 -33.973074716984485 76.166863131124785 126 125 121 0.88812244571148968 2 3404 3 8932 1 6207
1047 -42.210404248778907 -28.528547992778982 71.430675512577935 77 46 33 0.64524830972333502 2 5275 6 7859 1 6381 8 4395
1048 -26.328671457295197 -27.858872350496291 74.822846736474986 236 227 217 0.43892949803016812 2 6410 6 6927 1 6386
1049 -38.629425306078083 -22.347195643688774 63.202265849389647 128 105 87 1.7427708056831743 3 9018 1 6468 5 3930
1051 -0.84405204846051274 -13.623584388180499 46.81549395684528 209 196 188 0.36585880621899458 2 5429 1 6508
1052 4.1310655299513712 -13.631228449649715 46.56979867020781 93 100 110 1.100234454126743 2 5434 1 6513 4 8092 8 4633 3 5725
1056 8.5067880948703998 -3.3688781323110839 27.025050773649507 101 116 109 0.93950396681504178 2 5637 1 6635
1057 -14.806876100464017 -5.9689213207790388 30.79941561495497 75 32 23 0.59319283282512403 2 4160 3 7972 1 6637
1058 -10.009080576765841 -5.2974283865181224 31.19657958537174 196 140 106 1.1470080226121386 2 6646 1 6654 4 7368
1059 -9.607415326738673 -5.0844788109470258 31.015118901554967 56 22 10 1.4996967233651959 2 6649 1 6656 5 6546 4 8988
1061 -6.9777062546496458 -4.1136645375758913 29.250698405247871 211 184 167 0.67287434980276484 2 5660 1 6661 5 5131 4 8227
1062 -15.009513544751885 -4.7538676919632854 30.415548337720058 183 115 70 0.22246244044216792 2 5644 3 9325 1 6671
1063 -14.894085944918844 -4.7021931460240127 30.457738291871433 138 78 38 1.1636564785906325 2 5646 3 8073 1 6673
1064 -11.726014966313612 -3.8457051432599356 29.064433925253571 198 123 68 0.68762882575564344 2 5683 1 6682 4 8223
1065 -25.188113583335682 -5.0998723906771586 37.525425382458238 166 146 131 1.4449516372616573 2 6690 3 8135 1 6717
1066 -24.867066873189255 -5.0175267165594555 37.544965050083682 100 91 84 0.974647005761485 2 5679 3 9361 1 6718
1067 -6.6373676253878555 -2.3107810003055707 26.324601025813887 184 122 83 0.3817671160275744 2 5752 1 6728 5 5175 4 8276
1068 -7.6314160327760217 -2.0385834143125821 25.687770328760568 83 44 34 0.43307367770722299 2 5747 1 6766 4 8318
1069 -5.9665948403383444 0.15677383371708417 20.413273810851003 96 87 86 1.7461425477898735 2 5867 3 9586 1 6838
1070 -6.6863523371895894 -58.447194268624791 80.342744138341516 216 213 206 1.1084969747561548 6 7448 1 7006 8 5322
1071 52.445960916260688 -39.358469361797489 66.997694495873645 90 98 109 1.0966494034576377 6 7584 1 7205 7 4511 2 6013
1072 37.275122939434695 -34.137990864325921 72.484408373261715 170 172 171 1.075691491778922 2 6243 3 9931 1 7368
1074 30.730826828707123 -35.733515736753588 87.973270648338101 237 250 255 0.65787121603249188 2 6337 3 10804 1 7487
1076 30.277453039253931 -20.352381151170693 58.194772939136556 203 64 78 1.4995098177635811 3 10900 1 7609 5 6391
1079 -27.885276774803632 -26.244231432399651 73.255765371251314 112 99 90 0.77353201909851099 2 6464 3 10095 1 7623
1080 0.96378956637029956 -16.07744719653267 42.962512637049002 123 118 112 0.045840175560075025 2 6472 1 7631
1081 -1.9248034696337601 -12.292080786770937 44.728065707839441 238 151 79 1.1022649703804859 2 6544 1 7694 4 8898
1082 -1.9100708403800768 -12.302036089913095 44.783947558985531 238 151 79 1.0061809392632139 2 6543 1 7695 4 8899 5 7029
1083 -13.070372775653635 -6.2732604918246171 31.138853470331007 132 99 94 1.4853193424126745 3 10973 6 8025 1 7758
1084 -9.2524702705749924 -5.568664091314365 30.947997768809767 80 38 24 1.5375733353392536 2 7469 1 7766 5 6524
1085 -9.2537485220184017 -4.0434313201709351 29.419866547491289 138 91 63 0.94354206380366634 2 5658 1 7789 5 5909
1086 -5.7763686170780542 -2.9065210230833594 26.836136365135399 62 19 4 1.7101640130289024 2 6711 1 7795 4 8278
1087 -5.0027025693410714 -3.0631041720160295 27.187976165196716 54 25 21 1.0446888259698606 2 5713 1 7800 5 5180 4 8286
1088 1.5449084219264981 -0.95941822714484559 23.448328429511346 165 109 84 0.1907629375850767 2 6743 1 7833
1089 -9.4320035014164514 -1.839770227381605 24.64539897447349 91 81 79 0.99983945448770406 2 5787 3 10394 1 7838
1090 -7.5722377564994607 -0.25881436661462565 21.820131385915197 175 167 162 1.0912757510715101 2 6802 1 7878 5 6050
1091 -7.2398230089027784 -0.0030678298726406986 21.499668157535336 90 82 79 1.2202699590384616 2 6838 1 7879 4 9134 5 6718
1092 1.9278844078788355 8.4699359240255809 30.980616965349633 36 21 16 0.66391043903917035 2 7655 3 11214
1093 38.538971284143614 -47.642511622350384 67.286651257805104 202 202 193 2.1497977672426005 6 8363 1 8116 8 7778 7 5716
1094 -14.551277723567985 -49.964972545194364 93.633621476506207 145 137 126 0.67495801775649589 6 9130 1 8171 8 7822
1095 -40.99058171718066 -28.091222805995656 72.043799236270814 141 132 123 0.99175581040797933 6 7860 1 8410 8 5763
1096 -35.131998607485414 -24.726605730641019 67.187850045851974 185 173 160 1.9888244363705658 3 10010 1 8459 5 6341 4 7903
1097 -1.985265833487015 -12.041444039467001 44.956532041266158 44 34 32 1.7071228364743405 2 7375 1 8543 5 7030 4 9500
1098 34.230867680340737 -9.8521613089238329 65.765015738136512 217 206 200 1.0145908552127629 6 9441 1 8568 5 7103
1099 -11.907291422458709 -4.2798001093928857 29.50895663787778 238 204 165 0.5801952258287939 2 7488 1 8644 5 6544 4 9002
1100 -8.2743443252902651 -3.6039640025946338 28.095487741009254 64 26 15 0.86016956088001029 2 7507 1 8647 4 9015 7 7157
1101 -7.2517693692044807 -2.4318865029408707 25.955556148812718 84 48 32 1.2824703977461387 2 7535 1 8666 5 6595 4 9639 8 8271
1102 -6.7036063626286237 -2.4197024094789445 26.299084399223897 68 26 12 1.6122347954241802 2 7538 1 8669 5 7147 4 9642
1103 -7.2176594960839378 -1.4030807488470842 24.41383794479264 85 72 63 1.7489863850628513 2 6764 6 8929 1 8686
1104 -6.8243776998932697 -0.75378253955776064 22.483281732316925 41 31 27 0.67195747508488679 2 7574 3 11104 1 8714
1105 -8.7066409184800513 -0.084110078886200243 21.874011796947535 191 124 73 2.3876813892052291 2 8106 3 11112 1 8725
1106 -7.0926860978632975 -0.44949766011161479 22.082968353871262 83 75 73 1.0006958176649452 3 11106 1 8727 5 7191 6 9516 4 9684
1107 -8.3261026904930358 0.2514136217177394 21.367776873016084 190 123 65 0.36815005795174072 2 8107 1 8753
1108 -4.4577119978641617 6.1187754658263378 20.919348647446522 91 55 39 1.7967989012548671 1 8801 4 9729
1109 -9.8148080493874676 5.6458945897894779 19.29859012442698 29 19 10 2.7289755385074494 2 7668 1 8820
1110 -7.2994861343587019 -58.053370035271691 79.915816870814169 179 179 171 2.0593949166121175 6 9031 1 8846 7 5617 8 7743
1111 -7.2994861343587019 -58.053370035271691 79.915816870814169 179 179 171 2.0593949166121175 6 9032 1 8847 7 5618 8 7744
1112 -6.9507682764545553 -57.874927247007989 80.353597650640395 118 117 112 1.226315086082572 6 9034 1 8848 8 7746
1113 -4.2271066254237821 -59.678863129272081 82.930482298116289 186 187 181 2.2285880398431726 6 9035 1 8849 7 6646
1114 -27.361665021813469 -45.161419702290083 62.354182811309791 112 102 93 0.41207934078201963 6 9023 1 8900 8 5315
1115 40.434295304677413 -46.272079916790865 61.824043547755238 206 205 202 1.3084313935672915 6 9952 1 8923 7 7424
1117 20.204324180777643 -64.367158785035102 115.86340947026383 106 111 115 1.0067004247393561 6 9110 1 8952 5 7251 8 8535
1118 -16.205191694178986 -49.410034257187185 91.425754086584831 201 191 179 0.8267042795293269 6 9128 1 8964 4 9754 8 8532
1119 -17.061861839079683 -48.383147549164846 91.258976514107275 195 185 172 0.98921220470363413 6 9127 1 8965 8 7838
1120 42.857001354577967 -24.087686522278794 67.420294862790385 74 73 78 1.6187068670494869 6 7903 1 9139 7 6056 8 7110
1121 -37.418482560253906 -22.893585204809476 64.049389671427704 183 160 142 0.97885826162600198 3 10084 1 9202
1122 -11.963230598828694 -4.097856569514537 29.329585753879513 97 33 8 0.83765496776007953 2 7489 1 9291 5 7126 4 9607
1123 -7.9879808196494135 -3.539144219114116 27.893717668616233 179 122 92 0.79338103943321425 2 8071 1 9293 5 6563 4 9621 8 8253
1124 -5.4290130545200048 -2.0887017112646449 25.27109843250598 106 100 100 1.1280695222131158 2 7539 1 9306 4 9083 5 7170
1125 6.4195651151493252 2.1688222404922071 28.922864313908029 68 55 47 1.0956638027555605 2 8111 1 9327 5 7214
1126 2.8999605679183449 8.9934523728589042 30.895599363258256 105 89 76 1.8607479259152822 1 9351 4 10127
1128 22.303056314627842 -20.527035222002919 60.620989255692336 44 53 82 1.6813771378424378 2 8318 6 9322 1 9579 6 10085
1131 -10.600463636825628 -5.1222450319417101 31.147950066912141 48 25 17 1.6807090461997254 2 8402 1 9662 5 7777 3 12011 4 10338 7 8448 8 9482
1132 -9.4162593776039234 -4.1438201740395328 29.443124877214647 197 123 74 2.3359233276571052 2 8061 1 9672 5 7128 4 10039
1133 31.092456618950713 0.8997833926103439 45.835088911759371 48 45 56 1.5549910530365063 2 8443 1 9679 7 8480
1134 -5.9794736597566507 -2.6100739052702742 26.719045998969104 110 87 84 2.0064319423553143 2 8725 1 9685 4 10355 7 8229 8 9240
1135 -0.48184734972084892 -1.8803700177708687 24.655600662773011 177 125 109 0.010447731754633146 2 8431 1 9689
1136 -7.309483736873216 -1.7724036087755148 24.338646009115589 51 26 19 0.71865156058061397 2 8438 1 9690 5 7540 4 10066
1137 -7.3035767437875778 -1.7726958307738838 24.358849878210137 51 26 19 0.85360562276852847 2 8437 1 9691 5 7539 6 10197 4 10067
1138 -5.490672975002628 0.6017668188295956 21.051587267519213 72 28 17 1.5923856216598034 2 8454 4 10582
1139 -5.3349408057764727 6.3065017673908708 20.737933433056241 88 46 25 0.70430510249559597 1 9721 4 10411
1140 37.425843219346888 -43.552023983789262 70.917507783610503 146 145 141 0.72763597885763731 2 8498 1 9771 5 7585
1141 54.103486338887549 -39.623386061349116 84.936214222600128 249 255 255 1.9470481321301818 6 10018 1 9812 5 8087 7 8350 8 9375
1142 -5.749820111010191 -1.8307427585860596 25.379306402395208 197 132 91 1.0592608323698431 2 8439 1 9965 5 7803
1143 -3.7880782442820098 -1.4055994709658151 24.28130005538635 80 50 42 0.36696756385725982 2 8735 1 9970 4 10713
1145 -10.136752365099269 -7.5890158941461356 31.095771189653636 53 36 29 1.083437027977274 2 8886 1 10117 5 8138
1147 -10.51803653958458 -6.1108023656424857 31.509621832058368 46 35 33 0.85813119426051176 2 8894 1 10133 5 8154
1148 -10.672289607024229 -4.7494878868727399 30.754451261622343 186 111 53 0.23332924892869089 2 8909 1 10139 4 10694
1149 -3.0471877094280768 -3.2766091291265904 28.246465769537416 206 151 121 1.2171042254397959 2 8913 1 10147 5 8169
1150 -8.7808591212118845 -3.1395113830413903 27.140059554922868 201 131 82 1.7621973209018751 2 8916 1 10152 4 10554
1151 -9.818192644976671 -1.8531715029974936 25.063094359642882 92 78 75 0.7574683153704459 2 8921 1 10160 4 10706
1152 7.7295651568685004 0.29893225531463863 28.373866538055161 84 83 78 1.3750897607727879 2 8927 6 10432 1 10167
1153 7.7097864189073197 7.7746363652775177 31.087596062924657 43 30 22 1.3313645220727099 3 12211 5 8041 6 10459 4 10739
1154 -36.126088977676631 -34.466233121533548 78.797986400859941 184 171 155 2.1321036935516435 6 10510 1 10242 5 7884 8 9587
1155 -41.582825834030253 -29.145842109016435 72.518454623978513 85 52 33 0.96268935055195359 6 10521 1 10249 8 9595 3 12234
1156 -9.5568373287786699 -4.3597249197838934 29.701342790376479 192 119 68 2.4718925913902496 2 9050 1 10302 5 8161 4 10699
1157 -9.5568373287786699 -4.3597249197838934 29.701342790376479 192 119 68 2.4718925913902496 2 9051 1 10303 5 8160 4 10698
1158 -12.888866803188977 -3.7262980655141775 28.971898104772542 196 123 68 2.3956769006626168 2 9053 1 10305 4 10697 5 8166
